# .PCD v0.7 - Point Cloud Data file format
VERSION 0.7
FIELDS x y z
SIZE 4 4 4
TYPE F F F
COUNT 1 1 1
WIDTH 612
HEIGHT 1
VIEWPOINT 0 0 0 1 0 0 0
POINTS 612
DATA ascii
-0.23182642 0.22124459 0.8766486
-0.22939588 0.22598347 0.8764922
-0.24142437 0.22606082 0.87679219
-0.2271294 0.22610562 0.87696594
-0.22971274 0.22151066 0.87770289
-0.23215127 0.22394757 0.87787706
-0.24398001 0.22621441 0.87738788
-0.23911418 0.22613628 0.87708491
-0.23197787 0.22617145 0.87722129
-0.23229615 0.21690397 0.87842488
-0.2395982 0.2170115 0.87886035
-0.23482838 0.21703133 0.87894064
-0.23218426 0.2191928 0.87800181
-0.23004912 0.21943904 0.87898815
-0.23482458 0.22181945 0.8789264
-0.22753789 0.22172272 0.87854314
-0.22276108 0.22173539 0.87859333
-0.22028521 0.22165392 0.87827051
-0.21786334 0.2216256 0.87815827
-0.19397584 0.22647104 0.87838328
-0.24209633 0.21710342 0.87923259
-0.23732451 0.21712306 0.87931216
-0.23006675 0.21705969 0.8790555
-0.2350767 0.21965921 0.87987006
-0.22785562 0.21963422 0.87976998
-0.24212699 0.22192483 0.87934393
-0.23975582 0.2219487 0.87943852
-0.21582064 0.22198665 0.8795889
-0.19654487 0.2218796 0.87916476
-0.19425195 0.22199795 0.87963367
-0.18458112 0.22190191 0.87925315
-0.24465972 0.22204806 0.87983221
-0.18709314 0.22203878 0.87979543
-0.23010238 0.22428292 0.87919164
-0.22798048 0.21735515 0.88025206
-0.21608742 0.21745987 0.88067615
-0.23776905 0.21993111 0.88095921
-0.21849303 0.2198655 0.88069642
-0.23756279 0.22213961 0.88019502
-0.22559522 0.22216795 0.88030732
-0.21359597 0.22216654 0.88030171
-0.19929554 0.22227465 0.88073003
-0.19211425 0.22229883 0.88082588
-0.18958366 0.22214697 0.88022417
-0.1824322 0.22220372 0.880449
-0.24489592 0.22466302 0.88068163
-0.24242006 0.2245933 0.88040829
-0.2279347 0.22450835 0.88007528
-0.24500971 0.21756226 0.88109082
-0.22595027 0.2177109 0.88169277
-0.21870323 0.21767408 0.8815437
-0.24019448 0.21995316 0.88104755
-0.24266089 0.22001193 0.88128293
-0.22121155 0.22018193 0.88196385
-0.21624684 0.22002266 0.8813259
-0.24764575 0.22257631 0.88192534
-0.211467 0.22245118 0.88142955
-0.20903777 0.22242288 0.88131744
-0.24034536 0.22489755 0.88160098
-0.23552263 0.22488177 0.88153911
-0.22349048 0.22486417 0.88147014
-0.22111654 0.2248935 0.88158506
-0.21859641 0.22477311 0.88111317
-0.19710951 0.22492038 0.88169044
-0.19463086 0.22483338 0.88134944
-0.22139727 0.21796066 0.88270426
-0.21421716 0.21799955 0.88286179
-0.20204616 0.21785043 0.88225788
-0.19962682 0.21783467 0.88219404
-0.19730932 0.21793102 0.88258421
-0.18289399 0.21795408 0.88267767
-0.24793348 0.21802133 0.88295001
-0.22387661 0.21803197 0.8829931
-0.24541865 0.22033112 0.88256145
-0.22619663 0.22035424 0.88265413
-0.22367035 0.22023579 0.88217962
-0.21418984 0.22037798 0.8827492
-0.19974381 0.22036846 0.88271105
-0.20688047 0.22268663 0.88236248
-0.20439774 0.22260217 0.8820278
-0.20210913 0.22272964 0.88253289
-0.18044236 0.22270991 0.88245469
-0.2479244 0.22523345 0.8829177
-0.23829426 0.22523026 0.88290519
-0.2165893 0.22518343 0.8827216
-0.20933475 0.22514462 0.88256949
-0.19965552 0.22508119 0.88232088
-0.1925236 0.2251786 0.88270271
-0.18056655 0.218049 0.88306206
-0.24817117 0.22063944 0.88379645
-0.20241901 0.22066179 0.88388604
-0.19742097 0.22046147 0.88308364
-0.18787141 0.22055425 0.88345522
-0.18555489 0.2206632 0.8838917
-0.22633153 0.22530049 0.8831805
-0.21427333 0.22527824 0.8830933
-0.21197151 0.22539026 0.8835324
-0.20716991 0.22540672 0.88359696
-0.20469527 0.22533397 0.88331175
-0.19020963 0.22528774 0.88313049
-0.18791075 0.22541775 0.88364017
-0.23377421 0.21587443 0.88401419
-0.21208486 0.21828181 0.88400489
-0.20742412 0.21844882 0.88468122
-0.20491786 0.21834785 0.88427234
-0.19524156 0.21830897 0.88411486
-0.19296183 0.21845639 0.88471192
-0.19050412 0.21840352 0.88449776
-0.18810843 0.2184213 0.88456976
-0.18563503 0.21834813 0.88427347
-0.21217054 0.22078063 0.88436204
-0.19536412 0.22085747 0.88466984
-0.1904206 0.2207177 0.88410997
-0.18336301 0.22092523 0.88494122
-0.18092133 0.22088926 0.88479716
-0.25064406 0.22310531 0.88402146
-0.18560474 0.2255425 0.88412917
-0.18319856 0.22554719 0.88414758
-0.23653686 0.21619703 0.88533527
-0.23165722 0.21614751 0.88513249
-0.22939494 0.21628937 0.8857134
-0.20995381 0.21857186 0.88517952
-0.20513563 0.22099282 0.885212
-0.20999661 0.22102976 0.88535994
-0.2076987 0.22115268 0.88585234
-0.19318405 0.22112234 0.8857308
-0.2441805 0.21655515 0.88680178
-0.23919567 0.21641919 0.88624501
-0.22720572 0.21650386 0.88659173
-0.21748966 0.21645486 0.8863911
-0.17885053 0.22372764 0.88648736
-0.241897 0.21667498 0.8872925
-0.22504906 0.21675433 0.88761741
-0.22269323 0.21681632 0.88787127
-0.22022204 0.21676612 0.88766569
-0.20327276 0.2167535 0.88761401
-0.25158679 0.21910696 0.88734657
-0.17897519 0.21904737 0.88710529
-0.25162032 0.22155523 0.88746482
-0.20104071 0.21695578 0.8884424
-0.24720114 0.217085 0.88897157
-0.21566068 0.21704581 0.88881105
-0.2132747 0.21708325 0.88896435
-0.17919002 0.22173132 0.88817012
-0.22806174 0.21489374 0.88993204
-0.22542621 0.21469401 0.8891049
-0.22317293 0.21485795 0.8897838
-0.20851056 0.21716888 0.88931501
-0.20608935 0.21717195 0.88932759
-0.19884416 0.21720177 0.88944972
-0.18190382 0.21723896 0.88960201
-0.19674559 0.20541957 0.89092559
-0.23544294 0.21498848 0.89032441
-0.24046181 0.21513622 0.8909362
-0.237919 0.21503295 0.89050853
-0.21854776 0.21508001 0.89070344
-0.24993995 0.21735948 0.89009553
-0.21122204 0.21746472 0.89052647
-0.19663487 0.21743976 0.89042425
-0.1943168 0.21756189 0.89092439
-0.19173987 0.21739361 0.8902353
-0.18945296 0.21755406 0.89089239
-0.18446441 0.21739887 0.89025682
-0.21621381 0.17873897 0.89109069
-0.20667878 0.1788955 0.89187109
-0.20415132 0.1788111 0.89145035
-0.20170924 0.17880036 0.89139676
-0.19937076 0.1788823 0.89180523
-0.211546 0.18376207 0.89189231
-0.19930583 0.18854456 0.89151484
-0.1992639 0.19336411 0.89132726
-0.19690681 0.19343534 0.89165562
-0.20182212 0.20078088 0.89189553
-0.2334335 0.21537364 0.89191943
-0.23079568 0.21518102 0.89112175
-0.22109301 0.21519423 0.8911764
-0.21388133 0.21527064 0.89149284
-0.20904654 0.21529675 0.89160097
-0.20425445 0.21536911 0.89190066
-0.1871134 0.21765745 0.8913157
-0.21656972 0.17660022 0.8925575
-0.21891747 0.17896353 0.89221025
-0.21410705 0.17900835 0.8924337
-0.2092545 0.17901924 0.89248794
-0.20198843 0.1887805 0.89263052
-0.1970845 0.1887445 0.89246029
-0.19701974 0.19111438 0.89216703
-0.19957949 0.19610383 0.89273894
-0.20435415 0.20088005 0.89233601
-0.19960843 0.20099989 0.89286834
-0.19962487 0.20588447 0.89294189
-0.24575286 0.21551676 0.89251214
-0.24339151 0.21558011 0.89277446
-0.2165211 0.21547933 0.89235711
-0.21177064 0.21559578 0.89283937
-0.20678258 0.21547014 0.89231902
-0.19946103 0.21544357 0.89220899
-0.1970602 0.21547768 0.89235026
-0.19459561 0.21544203 0.89220268
-0.19217399 0.21545367 0.89225084
-0.21923186 0.17678502 0.89349151
-0.20472807 0.17687945 0.89396876
-0.20213874 0.17674609 0.89329475
-0.22909074 0.17931198 0.89394736
-0.21188593 0.17918722 0.89332545
-0.19736132 0.17926513 0.89371383
-0.21447325 0.18418811 0.89396012
-0.20945676 0.18406253 0.8933506
-0.20228408 0.18418337 0.89393711
-0.19965631 0.18400729 0.8930825
-0.21200778 0.18659966 0.89383918
-0.21185675 0.18890145 0.89320242
-0.19972715 0.19137838 0.89339942
-0.20207399 0.19372886 0.89300865
-0.20212236 0.19621003 0.89322239
-0.20717068 0.20125324 0.89399379
-0.19723837 0.20106487 0.89315706
-0.19728231 0.20354483 0.89335608
-0.194801 0.20593116 0.89314437
-0.20209548 0.21565959 0.8931036
-0.18992779 0.2156648 0.89312524
-0.18020266 0.21811497 0.89318931
-0.21705468 0.17455727 0.89455622
-0.20232292 0.17446995 0.89410871
-0.20728548 0.17698242 0.89448917
-0.21468294 0.17705067 0.8948341
-0.19999562 0.1770044 0.89460027
-0.23173764 0.17947473 0.89475876
-0.22680795 0.17943378 0.89455462
-0.22192118 0.17942575 0.89451456
-0.21223323 0.18191998 0.8947897
-0.20733331 0.18190084 0.89469558
-0.22185427 0.18424678 0.89424485
-0.21699099 0.18425685 0.89429373
-0.20724829 0.18426405 0.89432865
-0.19753578 0.18430014 0.89450383
-0.20974876 0.18919617 0.89459598
-0.21697444 0.19155534 0.89422548
-0.21225347 0.19169448 0.89487505
-0.20251343 0.19171067 0.89495063
-0.19509594 0.19405167 0.89449662
-0.22200695 0.1965698 0.89486027
-0.21945341 0.19646749 0.89439446
-0.21713293 0.19657385 0.89487869
-0.21211457 0.19644441 0.89428943
-0.20983092 0.19658874 0.89494646
-0.20481041 0.19645295 0.8943283
-0.1975093 0.19646516 0.89438391
-0.20490748 0.19898503 0.8947522
-0.20232326 0.19884224 0.8941102
-0.20006028 0.19901556 0.89488953
-0.19519888 0.20147268 0.89496863
-0.19994968 0.20378149 0.89439481
-0.20236062 0.20619191 0.89427531
-0.19754086 0.20868824 0.89452684
-0.18773124 0.21593852 0.89425874
-0.24876553 0.21602027 0.89459729
-0.18535978 0.21601561 0.89457798
-0.25592399 0.22319882 0.89404839
-0.21962458 0.17466183 0.89509207
-0.20511387 0.17477137 0.89565343
-0.22937584 0.17709534 0.89505988
-0.20992073 0.17714868 0.89532948
-0.21718682 0.18198325 0.89510083
-0.21476643 0.18199977 0.89518213
-0.20989113 0.18200405 0.89520317
-0.20512091 0.18210183 0.89568412
-0.20267147 0.18209469 0.89564902
-0.20023143 0.18209593 0.8956551
-0.22711468 0.18455987 0.89576441
-0.2247135 0.18459316 0.895926
-0.21967909 0.18446711 0.89531422
-0.20514973 0.18456925 0.89581001
-0.22706488 0.18696058 0.89556801
-0.22449459 0.1868531 0.89505321
-0.22221906 0.1869913 0.89571524
-0.21004397 0.1870205 0.89585507
-0.2002718 0.18701646 0.8958357
-0.21473269 0.18929039 0.89504147
-0.20743582 0.18931079 0.89513791
-0.20511819 0.18942381 0.89567232
-0.22950523 0.19184223 0.89556473
-0.22714348 0.19190933 0.89587802
-0.21964625 0.19175988 0.89518034
-0.21487431 0.19185659 0.89563179
-0.19540553 0.19191748 0.89591604
-0.21477255 0.19664611 0.89520764
-0.20745593 0.19664986 0.89522469
-0.21251985 0.1992621 0.89599812
-0.20754968 0.19918007 0.89562923
-0.19778906 0.19918485 0.89565074
-0.2222078 0.20163055 0.89566988
-0.21980925 0.20166992 0.8958447
-0.2124887 0.20167488 0.89586675
-0.20991756 0.20155087 0.89531595
-0.20256583 0.2039609 0.89518219
-0.19532946 0.20404863 0.8955673
-0.19532007 0.20892094 0.89552426
-0.19779833 0.21140175 0.89569271
-0.19531256 0.21135387 0.89548981
-0.22709818 0.21384485 0.89569932
-0.18310377 0.21623108 0.89547032
-0.22972664 0.17492266 0.89642876
-0.22244608 0.174962 0.89663035
-0.20035641 0.17488077 0.89621413
-0.22739488 0.17500867 0.89686954
-0.2078377 0.17500918 0.89687216
-0.23226812 0.17744102 0.89680701
-0.2273389 0.17740971 0.89664876
-0.22241184 0.17737876 0.8964923
-0.21261783 0.17736271 0.89641118
-0.19798189 0.17738502 0.89652395
-0.22488652 0.17984723 0.89661586
-0.22003219 0.18231921 0.89675331
-0.1979271 0.18222214 0.89627588
-0.2296588 0.18708499 0.896164
-0.21995199 0.18713978 0.89642644
-0.21744534 0.18708546 0.89616627
-0.2150711 0.18714511 0.89645201
-0.202804 0.18709975 0.89623469
-0.19805402 0.18722832 0.89685059
-0.21749493 0.1895715 0.89637065
-0.1956398 0.18970253 0.89699024
-0.22230563 0.1919492 0.89606416
-0.22494423 0.19211668 0.89684594
-0.20781831 0.19210437 0.89678848
-0.20533437 0.19206746 0.89661622
-0.2126023 0.19445282 0.89634573
-0.21012431 0.19930649 0.89619774
-0.1955936 0.19943562 0.89677835
-0.22985855 0.20191726 0.89694345
-0.22733065 0.20184359 0.89661622
-0.22495894 0.20190851 0.89690459
-0.21748747 0.20178139 0.89633989
-0.21496584 0.20170785 0.89601326
-0.20529504 0.2042485 0.8964445
-0.22735675 0.20675538 0.89671916
-0.22009067 0.20681822 0.89699167
-0.21751374 0.2066929 0.89644814
-0.20520541 0.20660183 0.89605314
-0.19307154 0.20668599 0.89641815
-0.20032769 0.20905192 0.89608568
-0.22727785 0.21157056 0.89640796
-0.20047681 0.21165194 0.89675272
-0.1931342 0.21164164 0.89670908
-0.232234 0.21407785 0.89667523
-0.22972959 0.21402174 0.89644027
-0.25177637 0.21651241 0.89663541
-0.25405794 0.21881653 0.89606225
-0.25668609 0.22141917 0.89671069
-0.17834808 0.22126938 0.89610404
-0.22517754 0.17518558 0.89777613
-0.2153338 0.17514087 0.89754701
-0.21049818 0.17518874 0.89779234
-0.22518991 0.17764252 0.89782542
-0.22759968 0.18250707 0.8976773
-0.22256871 0.1823947 0.89712459
-0.22999765 0.18491463 0.89748627
-0.2079825 0.18736327 0.89749694
-0.22994453 0.18976359 0.89727896
-0.22744125 0.1897157 0.89705247
-0.22523236 0.18991496 0.8979947
-0.22261211 0.18976794 0.89729953
-0.22013648 0.18974231 0.89717835
-0.21053007 0.19234854 0.89792836
-0.22024922 0.19473313 0.89763784
-0.21768223 0.19462568 0.89714253
-0.2154173 0.19478892 0.89789504
-0.2054874 0.19465646 0.89728445
-0.22752383 0.1971229 0.89737815
-0.22500138 0.19705603 0.89707375
-0.19581398 0.19721311 0.89778882
-0.2152185 0.19949968 0.89706641
-0.21540508 0.20456739 0.89784408
-0.22999963 0.20693405 0.89749402
-0.22509293 0.20692131 0.89743876
-0.21526507 0.2068802 0.89726049
-0.20801124 0.20696333 0.89762104
-0.22274365 0.20701145 0.89782971
-0.20310603 0.20939806 0.89756942
-0.23255667 0.2119277 0.89792109
-0.23003277 0.21185741 0.8976233
-0.22520173 0.21191624 0.89787257
-0.22019437 0.21180807 0.89741427
-0.21776076 0.21182033 0.89746618
-0.20805067 0.21189703 0.89779115
-0.2054404 0.211729 0.89707923
-0.20302558 0.21176079 0.89721394
-0.22514161 0.21430647 0.8976329
-0.21319114 0.1753909 0.89882833
-0.1983726 0.17528647 0.8982932
-0.23023322 0.18265511 0.89840549
-0.22535215 0.1826687 0.89847231
-0.19595183 0.18510719 0.89842087
-0.23272043 0.18758382 0.89855343
-0.23272718 0.19248801 0.89857948
-0.23028609 0.19494443 0.89861184
-0.22775979 0.19487868 0.89830881
-0.22279383 0.19481863 0.89803201
-0.21056274 0.19482636 0.89806765
-0.20811769 0.19482914 0.89808041
-0.23027718 0.19738625 0.89857703
-0.22285251 0.19976702 0.89826852
-0.22038761 0.19975218 0.89820182
-0.21789326 0.19971003 0.89801228
-0.23273231 0.20229001 0.89859927
-0.23023534 0.20469719 0.89841378
-0.22787778 0.2047793 0.89877415
-0.21805508 0.20475766 0.8986792
-0.21307179 0.20467699 0.89832515
-0.21076952 0.20481928 0.89894962
-0.20817189 0.20467451 0.89831424
-0.23280382 0.20725255 0.89887536
-0.21798399 0.20958862 0.89838618
-0.1934803 0.20957223 0.89831597
-0.22293499 0.21208817 0.898601
-0.2156748 0.21217488 0.8989684
-0.22295053 0.21455257 0.89866364
-0.22036736 0.2144226 0.89811927
-0.21796584 0.21446846 0.89831138
-0.21556501 0.21451606 0.89851075
-0.19589588 0.21443334 0.89816427
-0.19349006 0.21448039 0.89836133
-0.23289129 0.17546597 0.89921308
-0.23299952 0.18290426 0.89963096
-0.20597993 0.18776789 0.89943516
-0.2255919 0.19512151 0.89942813
-0.22320324 0.2049862 0.89968228
-0.22568423 0.20501217 0.89979625
-0.22077698 0.20501046 0.89978874
-0.21323647 0.20728576 0.89901942
-0.21079384 0.20729358 0.89905334
-0.215781 0.20982771 0.89941102
-0.20588419 0.2097358 0.8990171
-0.2108773 0.21227895 0.89940929
-0.23797815 0.21485044 0.89991128
-0.23537697 0.21471527 0.89934516
-0.21082495 0.21467727 0.89918602
-0.20838206 0.21468568 0.89922118
-0.20589572 0.21464898 0.89906746
-0.20108826 0.21474934 0.89948779
-0.19853124 0.21463563 0.89901155
-0.18143769 0.21715845 0.89931083
-0.19633317 0.18055999 0.90016925
-0.2332705 0.18557209 0.90067726
-0.1963909 0.18797639 0.9004339
-0.23315829 0.19039066 0.900244
-0.23335408 0.19546251 0.90099996
-0.23319702 0.19778527 0.90039355
-0.23089427 0.20037113 0.900985
-0.2282152 0.20017543 0.900105
-0.22575535 0.20016985 0.90007985
-0.23322891 0.20517632 0.90051669
-0.22084747 0.20998284 0.90007603
-0.23085965 0.21016338 0.90084994
-0.22828607 0.2100548 0.90038449
-0.20873159 0.21013528 0.90072948
-0.21363221 0.21258071 0.90068787
-0.21348083 0.21488348 0.90004969
-0.20368464 0.2149018 0.90012646
-0.23602661 0.18089259 0.90182739
-0.19656745 0.18323208 0.90124339
-0.23337957 0.21022135 0.90109837
-0.22614101 0.21034244 0.90161741
-0.22368844 0.21034724 0.90163797
-0.2138059 0.21029642 0.90142018
-0.21141163 0.21035898 0.90168828
-0.23602909 0.21285188 0.90183681
-0.24078877 0.21517001 0.90124983
-0.19160864 0.21511737 0.90102935
-0.17947456 0.2202089 0.90176404
-0.19691575 0.17617376 0.90284032
-0.23627606 0.17862292 0.90278047
-0.19676571 0.17849864 0.90215236
-0.23378269 0.20074251 0.90265489
-0.19188505 0.21296808 0.90232915
-0.24345435 0.2153548 0.90202385
-0.18966763 0.21570311 0.90348279
-0.18725169 0.21575704 0.90370864
-0.23916738 0.21345882 0.90440834
-0.24907638 0.21596564 0.90458238
-0.24646597 0.21583895 0.90405172
-0.22471884 0.17428055 0.90579128
-0.22224303 0.17427525 0.90576369
-0.21975198 0.17425774 0.90567273
-0.23704202 0.18413961 0.90570712
-0.19508977 0.19650136 0.90578866
-0.23696725 0.20876186 0.90542144
-0.23704673 0.21130075 0.90572512
-0.18515922 0.2161901 0.90552253
-0.25676328 0.21867807 0.90560395
-0.1803062 0.21875983 0.90594256
-0.22983143 0.17441298 0.90647954
-0.22730052 0.17436697 0.9062404
-0.20523705 0.1745106 0.90698689
-0.23728384 0.17691347 0.90663111
-0.23724487 0.18676811 0.90648222
-0.23714556 0.18915983 0.90610272
-0.18772833 0.21383661 0.90600902
-0.19037148 0.21403171 0.90683562
-0.23262359 0.17465417 0.90773308
-0.21761094 0.17452052 0.90703851
-0.21284923 0.17467085 0.90781975
-0.21034487 0.17464611 0.90769118
-0.20774612 0.17454149 0.90714741
-0.20280275 0.17454329 0.90715683
-0.19547488 0.20431098 0.90757668
-0.18564275 0.21427992 0.90788728
-0.18314566 0.21672824 0.90777653
-0.21539347 0.17472737 0.90811348
-0.20051777 0.17470691 0.9080072
-0.23771214 0.19456334 0.90826756
-0.19559006 0.19452991 0.90811151
-0.1957105 0.19960345 0.9086706
-0.23769441 0.20445126 0.90819985
-0.24275073 0.21444654 0.90859324
-0.25251085 0.21679735 0.90806603
-0.2381556 0.1924459 0.909962
-0.23810734 0.19984663 0.90977758
-0.19579583 0.20216846 0.90906686
-0.23796111 0.20715904 0.90921885
-0.19584352 0.20717485 0.90928823
-0.24791855 0.2146322 0.90937984
-0.24538268 0.21458232 0.90916854
-0.18341756 0.21457188 0.90912426
-0.19860955 0.17520697 0.91060621
-0.19602163 0.19247831 0.91011524
-0.19642648 0.18790394 0.91199493
-0.23861367 0.19778641 0.91171217
-0.19393173 0.21275379 0.91195351
-0.25088859 0.21505325 0.91116381
-0.21403177 0.17315295 0.91286337
-0.19651668 0.18301602 0.91241366
-0.23877625 0.20289491 0.91233337
-0.24127951 0.21285687 0.91239536
-0.18162245 0.21786933 0.91255605
-0.21926522 0.173356 0.91393381
-0.21667539 0.17327715 0.91351813
-0.21171321 0.17329192 0.91359597
-0.19676022 0.17826249 0.91354442
-0.19680806 0.18079661 0.9137665
-0.19426405 0.21062829 0.91351628
-0.19187304 0.21322849 0.91398829
-0.18925704 0.21308818 0.91338682
-0.18184023 0.2156401 0.91365027
-0.25649384 0.2180793 0.91343552
-0.22436722 0.1734484 0.91442096
-0.22182241 0.17340757 0.91420567
-0.18692954 0.21327329 0.91418028
-0.18450291 0.21334878 0.91450387
-0.2272079 0.17371455 0.91582412
-0.20954479 0.17355853 0.91500157
-0.24215659 0.21113455 0.91571206
-0.21498986 0.17142859 0.91694969
-0.22984155 0.17381835 0.91637135
-0.20746624 0.17390689 0.91683817
-0.20497553 0.17391406 0.9168759
-0.19017589 0.21162091 0.91782141
-0.18766062 0.21160576 0.91775566
-0.25507849 0.21650143 0.91729963
-0.21790318 0.17175482 0.91869462
-0.21280277 0.1716806 0.91829765
-0.19542493 0.20938197 0.91897523
-0.19280301 0.21175851 0.91841817
-0.18521187 0.21166621 0.91801786
-0.18279952 0.21427411 0.9184702
-0.20301421 0.17437612 0.91931188
-0.20063914 0.1744899 0.91991174
-0.25074556 0.21457256 0.91974956
-0.19580212 0.20727628 0.92074895
-0.24834225 0.21466225 0.92013401
-0.18076588 0.21734276 0.92086428
-0.21596164 0.16969271 0.92109442
-0.22111593 0.17230695 0.92164791
-0.18348867 0.21256886 0.92193276
-0.25406438 0.21526031 0.92269748
-0.21900809 0.17010881 0.92335296
-0.22436196 0.1728723 0.92467195
-0.1941023 0.21066521 0.9246074
-0.18147975 0.21568105 0.92450094
-0.21450596 0.17053151 0.92564738
-0.21194564 0.17302434 0.92548513
-0.18933742 0.2109725 0.92595607
-0.19711983 0.2061445 0.92694539
-0.19198239 0.21110551 0.92653984
-0.18698049 0.21116117 0.92678416
-0.18189988 0.21365447 0.92664117
-0.22257748 0.170917 0.92773986
-0.2100994 0.17358325 0.92847466
-0.20762768 0.17363271 0.92873925
-0.19483672 0.20893243 0.92810577
-0.1926821 0.20934013 0.9299168
-0.21302082 0.17136656 0.93018001
-0.18558668 0.21245761 0.9324742
-0.18077625 0.2153247 0.93388516
-0.18352868 0.2130191 0.93493861
-0.1920829 0.2114711 0.93938285
-0.18195167 0.21416259 0.93995732
-0.18966107 0.21162595 0.94007075
-0.1872139 0.21175636 0.94065011
-0.18502444 0.21218596 0.94255841
-0.19318281 0.21010676 0.94476199
-0.19074138 0.21025428 0.94542533
-0.18309599 0.2129312 0.94586885
-0.18835223 0.21046427 0.94636959
-0.1861145 0.21085165 0.94811147
-0.18363559 0.21097283 0.94865638
-0.18250957 0.21267399 0.95630574
-0.19054484 0.21030462 0.95738631
-0.18531986 0.21029823 0.95735723
-0.19334419 0.21051112 0.9583264
-0.18807761 0.21046402 0.958112
