# .PCD v0.7 - Point Cloud Data file format
VERSION 0.7
FIELDS x y z
SIZE 4 4 4
TYPE F F F
COUNT 1 1 1
WIDTH 710
HEIGHT 1
VIEWPOINT 0 0 0 1 0 0 0
POINTS 710
DATA ascii
-0.20872425 0.22430891 0.86999732
-0.21123432 0.22445619 0.87056851
-0.20914921 0.2223893 0.87176859
-0.21177058 0.22264697 0.87277865
-0.21404964 0.22492093 0.87237108
-0.20703113 0.22504629 0.87285727
-0.21174695 0.22737968 0.8726812
-0.2092666 0.2272694 0.87225795
-0.21205181 0.22056042 0.87393767
-0.20945957 0.22033948 0.87306225
-0.20711204 0.22751445 0.87319845
-0.21458487 0.22071558 0.87455249
-0.2146192 0.22313516 0.87469238
-0.20743866 0.22310534 0.8745755
-0.20499274 0.22542115 0.87431121
-0.21962769 0.22099233 0.87564903
-0.20754832 0.22083806 0.87503779
-0.20531218 0.22099853 0.87567359
-0.21711759 0.22563802 0.87515235
-0.22219671 0.22117363 0.87636745
-0.21737252 0.2211263 0.87617993
-0.20551209 0.22360298 0.87652624
-0.20308819 0.22595371 0.87637681
-0.22478759 0.2213726 0.87715584
-0.20334834 0.22145931 0.8774994
-0.21758299 0.22373106 0.87702829
-0.21999992 0.22614872 0.87713313
-0.20087002 0.22614589 0.87712216
-0.2012893 0.22182615 0.87895298
-0.22024234 0.22400434 0.87809962
-0.20348729 0.22400419 0.87809902
-0.22268978 0.22645269 0.87831211
-0.21108231 0.21964823 0.87982607
-0.20856696 0.21952499 0.87933248
-0.20620576 0.21956302 0.87948477
-0.22774352 0.22192311 0.87933713
-0.2229349 0.22430518 0.8792789
-0.2014049 0.22435081 0.87945777
-0.22330299 0.21987407 0.88073069
-0.22081673 0.21978894 0.88038969
-0.21607935 0.21985225 0.88064331
-0.21360643 0.21977773 0.88034481
-0.20400092 0.2197704 0.88031548
-0.206581 0.21756087 0.88108522
-0.20425294 0.21763936 0.88140303
-0.22583318 0.22000018 0.88123584
-0.21873841 0.22011243 0.8816855
-0.23062001 0.22238554 0.88116944
-0.19953014 0.2225363 0.8817668
-0.22588471 0.22485571 0.88143694
-0.19955984 0.22497334 0.88189805
-0.22141716 0.21798025 0.88278359
-0.20940728 0.2180029 0.88287532
-0.22861229 0.22036359 0.8826915
-0.23345014 0.2227942 0.88278872
-0.22846445 0.22503014 0.88212073
-0.23128182 0.21820606 0.88369811
-0.22639452 0.21813895 0.88342631
-0.22402653 0.21817799 0.88358444
-0.23131548 0.22064699 0.88382673
-0.20239079 0.22063102 0.88376278
-0.2338772 0.21838026 0.88440359
-0.22904788 0.21837279 0.88437337
-0.21946783 0.21843509 0.88462567
-0.21695861 0.21833661 0.8842268
-0.21463247 0.2184222 0.88457346
-0.21213321 0.21833158 0.88420641
-0.2025211 0.21836253 0.88433176
-0.19538893 0.21847375 0.8847822
-0.23403311 0.22093819 0.8849932
-0.23625633 0.22317189 0.88428527
-0.19764507 0.22312163 0.88408607
-0.23660558 0.21867384 0.88559252
-0.20047152 0.21875642 0.88592696
-0.19789377 0.21857655 0.88519853
-0.20036006 0.22104834 0.88543439
-0.23904292 0.22352366 0.88567907
-0.23930514 0.21893509 0.88665056
-0.19344279 0.21900091 0.88691711
-0.23688078 0.22134496 0.88662255
-0.19810569 0.22122611 0.88614649
-0.19582234 0.2213755 0.88674486
-0.1958165 0.22378595 0.88671839
-0.24197343 0.21916282 0.88757282
-0.23962857 0.22165112 0.88784891
-0.24194491 0.2239752 0.88746822
-0.21313156 0.17819278 0.88836771
-0.21313126 0.18061407 0.88836646
-0.21320456 0.18309857 0.88867199
-0.20839325 0.21704668 0.88881463
-0.24453659 0.22413339 0.88809502
-0.19388512 0.22434793 0.88894516
-0.21100295 0.17844051 0.88960272
-0.21095426 0.1808237 0.8893975
-0.21583597 0.18327607 0.88953352
-0.21086788 0.18317302 0.88903332
-0.20866962 0.18337081 0.88999337
-0.21347298 0.18817994 0.88979077
-0.21089447 0.18804345 0.88914537
-0.23766185 0.2172253 0.88954604
-0.23514575 0.21714094 0.88920063
-0.23270205 0.21712239 0.88912463
-0.21350335 0.21731597 0.88991737
-0.21100698 0.2172433 0.88961977
-0.20609689 0.21717988 0.88936007
-0.19644579 0.21723066 0.88956803
-0.24493571 0.21964967 0.88954449
-0.24236575 0.22194146 0.88901186
-0.19392276 0.22196788 0.88911772
-0.21604632 0.1786005 0.89040041
-0.20871834 0.17856055 0.89020121
-0.21597987 0.18097192 0.89012659
-0.20882019 0.18107541 0.89063561
-0.21852085 0.18349452 0.89059377
-0.21371575 0.18596575 0.89080268
-0.21113904 0.18583503 0.89017653
-0.21600448 0.19069901 0.89022797
-0.21352804 0.19065453 0.89002031
-0.21119939 0.19074249 0.89043093
-0.21355572 0.19553198 0.89013571
-0.21122646 0.19562192 0.89054513
-0.20877701 0.19560133 0.89045137
-0.21606803 0.20046444 0.89048988
-0.21355332 0.20038246 0.89012569
-0.2136773 0.20535429 0.89064246
-0.21129219 0.20539574 0.89082223
-0.21364701 0.21503478 0.89051616
-0.20882627 0.21506989 0.89066154
-0.24289174 0.217566 0.89094126
-0.24039823 0.21750723 0.89070058
-0.23063484 0.21745843 0.89050072
-0.21617626 0.21756469 0.8909359
-0.20393415 0.21745874 0.89050204
-0.20155407 0.21750978 0.89071101
-0.19898875 0.21735971 0.89009649
-0.19172023 0.21979773 0.89014411
-0.24512696 0.22224782 0.89023906
-0.21876076 0.17883542 0.89157152
-0.2064791 0.17872268 0.89100945
-0.20415907 0.17881788 0.89148414
-0.21626547 0.18849988 0.8913036
-0.20892096 0.18844949 0.89106536
-0.21624973 0.19577429 0.89123875
-0.21151231 0.20074819 0.89175028
-0.21637003 0.21532899 0.89173454
-0.21133596 0.21515326 0.89100677
-0.22839294 0.21763515 0.89122444
-0.22594081 0.21761321 0.89113456
-0.22355005 0.21765053 0.89128739
-0.22129352 0.21782078 0.89198458
-0.21879475 0.21775374 0.89171004
-0.194424 0.21768191 0.89141589
-0.19210517 0.2226703 0.89193135
-0.21892495 0.18140174 0.8922407
-0.20672499 0.18379879 0.89207053
-0.21644342 0.18622343 0.89203697
-0.20916025 0.18623365 0.89208597
-0.21413007 0.19362496 0.89252967
-0.21173541 0.19365993 0.8926909
-0.21662867 0.19855097 0.89280045
-0.21420583 0.19856097 0.89284545
-0.21896404 0.20089446 0.89240003
-0.21409026 0.20331873 0.89236373
-0.21654633 0.20577362 0.89246112
-0.21414264 0.21066758 0.89258206
-0.21164334 0.21060164 0.89230269
-0.24339604 0.21558411 0.89279103
-0.24100751 0.21562444 0.89295805
-0.23850951 0.21556665 0.89271873
-0.23609622 0.21558501 0.89279479
-0.23370729 0.21562625 0.89296556
-0.22394669 0.21560287 0.89286876
-0.22153878 0.21562809 0.89297318
-0.21894649 0.2154724 0.89232844
-0.20678236 0.2154699 0.89231807
-0.20441647 0.21553995 0.89260817
-0.19961613 0.2156111 0.89290279
-0.24822049 0.22041334 0.89263725
-0.24829482 0.22291327 0.89290458
-0.22178468 0.17931537 0.89396435
-0.20706934 0.18166927 0.89355648
-0.21931303 0.18659614 0.89382231
-0.20699176 0.18890552 0.89322168
-0.21927401 0.19143492 0.89366335
-0.21668942 0.19373803 0.89305085
-0.20946831 0.19381374 0.89339983
-0.21915036 0.19619618 0.89315939
-0.20704728 0.19626249 0.89346129
-0.21199371 0.19876878 0.89377987
-0.20956363 0.20121105 0.8938064
-0.2167974 0.20357667 0.89349586
-0.21189009 0.20354183 0.89334297
-0.20951276 0.20603378 0.89358944
-0.21192658 0.20844795 0.89349681
-0.21679561 0.2108815 0.89348847
-0.20956865 0.2109616 0.8938278
-0.21443394 0.2133905 0.89379627
-0.23146132 0.21580163 0.89369184
-0.22904076 0.21581623 0.89375234
-0.22646751 0.21568574 0.8932119
-0.20211062 0.21567573 0.89317048
-0.19735271 0.21579751 0.89367479
-0.24599229 0.21816196 0.89338171
-0.19235601 0.21809217 0.89309597
-0.1899592 0.22057031 0.89327294
-0.2023591 0.17937641 0.89426857
-0.22185043 0.18424359 0.89422935
-0.20972863 0.19161631 0.89451015
-0.22197694 0.19654323 0.89473927
-0.21954431 0.19898784 0.8947649
-0.20980278 0.19900151 0.89482635
-0.21452048 0.20860197 0.89415699
-0.21955143 0.21118963 0.89479393
-0.21217962 0.21357371 0.89456367
-0.24629207 0.21598963 0.89447045
-0.24875982 0.21601532 0.89457679
-0.19515818 0.21606487 0.89478201
-0.19272375 0.21607004 0.8948034
-0.19027747 0.22337887 0.89476961
-0.21486764 0.17720298 0.89560395
-0.21242395 0.17720097 0.89559376
-0.20998503 0.17720294 0.89560372
-0.20755155 0.17720959 0.89563733
-0.20499745 0.17711219 0.89514506
-0.22451977 0.17955393 0.89515364
-0.22221541 0.18210517 0.89570051
-0.20513302 0.18211259 0.89573705
-0.22468005 0.18456568 0.89579266
-0.20501506 0.18444809 0.89522195
-0.20744269 0.18687697 0.89516753
-0.21962513 0.18930157 0.89509434
-0.22224985 0.19190104 0.89583933
-0.21981889 0.19435264 0.89588398
-0.20761251 0.19435622 0.89590043
-0.20503476 0.19666815 0.89530796
-0.22204486 0.20148268 0.89501303
-0.21966113 0.20641458 0.89524102
-0.21735504 0.20898388 0.89579409
-0.21003744 0.20899162 0.89582723
-0.21978459 0.21385556 0.8957442
-0.21717826 0.21369351 0.89506549
-0.20991117 0.21374682 0.89528871
-0.19042136 0.21622525 0.89544618
-0.24894637 0.21861762 0.89524764
-0.19046351 0.21871451 0.89564443
-0.2514002 0.22106981 0.89529586
-0.18807442 0.22121739 0.89589351
-0.22494033 0.18722411 0.89683038
-0.22237158 0.18711965 0.89633
-0.22244374 0.18962441 0.89662087
-0.20536804 0.18965453 0.89676327
-0.20779492 0.19208273 0.89668751
-0.22243717 0.1993947 0.89659441
-0.20776297 0.2018286 0.89654964
-0.21987358 0.20417158 0.8961069
-0.21010545 0.20417395 0.89611733
-0.20783266 0.20678565 0.89685041
-0.22241038 0.21158908 0.8964864
-0.20767225 0.21151163 0.89615822
-0.25415105 0.21645331 0.89639062
-0.2517603 0.21649861 0.89657825
-0.22032399 0.1776657 0.89794254
-0.21781676 0.1776171 0.89769697
-0.22518256 0.18253122 0.89779615
-0.20312878 0.1849525 0.89767003
-0.22513616 0.19228059 0.89761114
-0.22265637 0.19469844 0.89747792
-0.20559888 0.19476207 0.89777124
-0.20802523 0.19963644 0.89768142
-0.20546095 0.20196803 0.89716899
-0.22254606 0.20682782 0.89703327
-0.22517346 0.21188964 0.89775985
-0.2225855 0.21420129 0.8971923
-0.20795538 0.21424608 0.89737993
-0.25197557 0.21912974 0.89734483
-0.25444189 0.22159345 0.89741647
-0.20585172 0.17540006 0.8988753
-0.22280422 0.17769168 0.89807385
-0.20328991 0.18265036 0.89838207
-0.20587875 0.18767565 0.89899337
-0.20337449 0.19007593 0.89875585
-0.22528152 0.19730139 0.89819068
-0.20586655 0.19991636 0.89894009
-0.22546163 0.20235969 0.89890879
-0.20335031 0.2023012 0.89864898
-0.22283338 0.20464653 0.89819145
-0.20828938 0.20479004 0.89882129
-0.22533882 0.20714736 0.89841914
-0.20577337 0.20717365 0.89853317
-0.22039996 0.20955735 0.89825219
-0.20820951 0.2096097 0.8984766
-0.22778961 0.21204697 0.89842641
-0.20581102 0.21211097 0.89869761
-0.22790866 0.21460803 0.89889592
-0.22542435 0.2145756 0.89876014
-0.2057562 0.21450353 0.89845824
-0.20341726 0.2146197 0.8989448
-0.25477591 0.2194349 0.8985945
-0.18861926 0.21940911 0.89848882
-0.2597416 0.22194147 0.89882588
-0.25718436 0.22184899 0.89845139
-0.20359857 0.17556998 0.89974612
-0.22554483 0.1779225 0.89924049
-0.20350653 0.17794207 0.89933932
-0.22810268 0.18045807 0.89966118
-0.20116831 0.18049513 0.8998459
-0.23064049 0.18543147 0.89999473
-0.22796296 0.18524919 0.89911008
-0.22805944 0.18777947 0.89949065
-0.22551718 0.19015512 0.89913028
-0.20118742 0.19032453 0.89993131
-0.22796318 0.19260187 0.89911097
-0.2060297 0.19271787 0.89965248
-0.22569685 0.19521229 0.89984655
-0.20353554 0.19513005 0.89946753
-0.20116359 0.20256588 0.89982474
-0.20605707 0.20500666 0.89977205
-0.22807962 0.20741276 0.89957023
-0.22315682 0.20984733 0.89949518
-0.23040283 0.21219823 0.89906734
-0.20364676 0.21240871 0.89995909
-0.2450961 0.21463932 0.89902699
-0.24276343 0.21474363 0.89946389
-0.23305413 0.21483386 0.89984185
-0.23063906 0.21486902 0.89998913
-0.2573767 0.2171132 0.89912337
-0.18877625 0.21714056 0.89923668
-0.26252484 0.22222349 0.89996803
-0.22577037 0.17564678 0.90013969
-0.22331892 0.17564851 0.90014851
-0.20865217 0.17569499 0.90038675
-0.20128848 0.17569433 0.90038335
-0.23080133 0.18065087 0.90062237
-0.20122232 0.18545055 0.90008742
-0.22838992 0.19050699 0.90079409
-0.23080423 0.19292806 0.90063369
-0.22833025 0.19782157 0.90055877
-0.20369351 0.19773521 0.90016562
-0.22582878 0.20023495 0.90037262
-0.22589819 0.20520653 0.90064931
-0.23069459 0.20755932 0.90020585
-0.20367485 0.20753103 0.90008318
-0.22590961 0.2101272 0.90069485
-0.20631371 0.21017337 0.90089267
-0.25527155 0.21495342 0.90034264
-0.2503936 0.21497954 0.90045208
-0.24793746 0.21497811 0.90044606
-0.20120293 0.21487178 0.90000069
-0.25784844 0.21505576 0.90077132
-0.25299859 0.21510752 0.90098804
-0.24067758 0.21507064 0.90083361
-0.26012433 0.21736115 0.90015024
-0.18667501 0.21754836 0.90092552
-0.25785872 0.21997525 0.9008072
-0.18658631 0.22235422 0.90049744
-0.19907211 0.17590459 0.90146083
-0.23359899 0.18091629 0.90194559
-0.19917691 0.18091424 0.90193534
-0.22847766 0.1832111 0.90114015
-0.23089851 0.1880949 0.90100157
-0.20399703 0.1882004 0.90150696
-0.20410413 0.1932165 0.90198022
-0.22850756 0.19551851 0.90125811
-0.20144017 0.19547594 0.90106189
-0.20150419 0.19799499 0.90134823
-0.23115379 0.19813766 0.90199769
-0.22859231 0.2029638 0.90159231
-0.20392178 0.20532618 0.90117443
-0.20159973 0.20792127 0.90177566
-0.22850791 0.21025892 0.90125942
-0.23337145 0.21267019 0.90106702
-0.20145677 0.21268652 0.90113616
-0.23847342 0.21529756 0.90178412
-0.23598805 0.21527272 0.90168005
-0.19910367 0.2152545 0.9016037
-0.19671048 0.21532503 0.90189916
-0.19424963 0.21532236 0.90188795
-0.1917371 0.21526158 0.90163338
-0.1843724 0.21772924 0.90167457
-0.26064175 0.22025205 0.90194076
-0.1842737 0.2225257 0.90119195
-0.22132777 0.17601633 0.90203351
-0.21168569 0.17617704 0.90285712
-0.22881986 0.17856541 0.90248984
-0.20175341 0.17856012 0.90246308
-0.23629983 0.18110198 0.90287131
-0.23131113 0.18351027 0.90261167
-0.20171039 0.18344094 0.90227062
-0.19922565 0.18587679 0.90215611
-0.23373228 0.1883994 0.90246022
-0.20179951 0.18844305 0.90266925
-0.23134904 0.19092268 0.90275961
-0.23384738 0.19341452 0.90290463
-0.20181289 0.19337694 0.90272915
-0.23140147 0.19588862 0.90296423
-0.2041899 0.20067677 0.90235931
-0.20177771 0.20072402 0.90257174
-0.2288961 0.20569439 0.90279049
-0.23380855 0.208147 0.90275472
-0.23120002 0.21047324 0.90217811
-0.20424823 0.21057566 0.9026171
-0.19936939 0.21308085 0.90280694
-0.19693758 0.21311235 0.90294039
-0.26085034 0.21550731 0.90266263
-0.26321915 0.2178919 0.90234822
-0.18213533 0.21799344 0.90276873
-0.22896253 0.17621517 0.90305251
-0.21934518 0.17639931 0.90399611
-0.2167988 0.17633241 0.90365338
-0.19713353 0.17636861 0.90383881
-0.23165564 0.17885551 0.903956
-0.23653793 0.18867515 0.90378106
-0.1995851 0.19113928 0.90378374
-0.236469 0.19354585 0.90351766
-0.22899184 0.20085666 0.90316814
-0.23143214 0.20329957 0.90308386
-0.19941889 0.20328769 0.90303111
-0.20187426 0.20574296 0.90300363
-0.19957004 0.20836855 0.90371561
-0.2020734 0.21087363 0.90389436
-0.2587381 0.21333393 0.90387923
-0.24375188 0.21315622 0.90312624
-0.24148563 0.21332894 0.90385807
-0.192233 0.21335424 0.90396529
-0.18969275 0.21573168 0.90360242
-0.17982461 0.21817555 0.90352285
-0.26342005 0.22051975 0.90303695
-0.18729554 0.22073548 0.90392035
-0.23172243 0.17644233 0.90421665
-0.21445066 0.17642708 0.90413851
-0.23421797 0.1789306 0.9043355
-0.19963965 0.17887031 0.9040308
-0.23422599 0.18386705 0.90436649
-0.19978085 0.1839288 0.90467024
-0.23415998 0.1862797 0.90411162
-0.19735201 0.18642986 0.90484047
-0.23422281 0.19125992 0.90435421
-0.19974567 0.19375862 0.90451092
-0.19963428 0.19611475 0.90400654
-0.23424357 0.19867291 0.90443438
-0.23426926 0.20362592 0.90453357
-0.23187937 0.20615885 0.90482903
-0.2367966 0.20861153 0.90476942
-0.19736865 0.20864552 0.90491682
-0.23427966 0.21103214 0.90457374
-0.26147285 0.21355523 0.90481681
-0.25634122 0.21338968 0.90411538
-0.24651265 0.21341507 0.90422297
-0.23923454 0.21351877 0.90466231
-0.23660661 0.21337271 0.9040435
-0.19470744 0.21336563 0.90401351
-0.18990983 0.21351267 0.9046365
-0.18749748 0.21357365 0.90489489
-0.18733497 0.21585301 0.90411061
-0.26395878 0.21603759 0.90488374
-0.18504938 0.21606186 0.90498537
-0.26637492 0.21846281 0.9047125
-0.26641858 0.22096512 0.90486079
-0.18490259 0.22082023 0.90426749
-0.23687726 0.17661032 0.90507758
-0.23439126 0.17659609 0.90500462
-0.23695031 0.17913266 0.90535671
-0.23941068 0.18159483 0.90532839
-0.19745764 0.18159412 0.90532482
-0.2394103 0.18406232 0.90532696
-0.2371106 0.18419288 0.90596914
-0.2394346 0.18901706 0.90541887
-0.19995886 0.18902904 0.90547627
-0.23698656 0.19150123 0.90549523
-0.23939469 0.19392078 0.90526795
-0.23456572 0.1964774 0.90567821
-0.23711684 0.19901527 0.90599298
-0.231959 0.20129512 0.90513974
-0.19996755 0.2013787 0.90551561
-0.23694137 0.20380354 0.90532255
-0.19740108 0.20374566 0.90506548
-0.19511142 0.20886971 0.90588915
-0.1851474 0.21370816 0.90546477
-0.18259892 0.21608123 0.90506655
-0.18026285 0.21623838 0.90572476
-0.18278225 0.22123727 0.90597528
-0.23965561 0.17684001 0.90625459
-0.19516307 0.17681549 0.906129
-0.19776778 0.17940769 0.90674675
-0.23734237 0.18684487 0.90685475
-0.19762269 0.19162524 0.90608156
-0.19779879 0.20168413 0.90688896
-0.23487008 0.20662008 0.90685338
-0.20011392 0.20646632 0.90617847
-0.20014174 0.2114359 0.90630442
-0.19775195 0.21152216 0.90667421
-0.26432198 0.21386491 0.90612888
-0.25445145 0.21387275 0.90616208
-0.25208578 0.2139613 0.90653735
-0.24953634 0.21389414 0.9062528
-0.17797512 0.21893007 0.9066475
-0.18046895 0.22142898 0.90676028
-0.20277604 0.17452031 0.90703738
-0.20039864 0.17460312 0.90746772
-0.19803007 0.17469579 0.90794939
-0.23996875 0.1795446 0.9074387
-0.19790596 0.18447979 0.90738028
-0.19796944 0.18948729 0.90767139
-0.23993833 0.19188793 0.90732372
-0.2376145 0.1969582 0.90789449
-0.20042652 0.19936696 0.90759397
-0.23511238 0.20188427 0.90778893
-0.24007936 0.20437409 0.907857
-0.23757188 0.20682019 0.90773165
-0.1979332 0.2067686 0.90750521
-0.24002449 0.20927559 0.90764952
-0.23746313 0.21167192 0.90731615
-0.19546658 0.21172372 0.90753818
-0.18302821 0.21411638 0.90719438
-0.1806218 0.21419521 0.90752834
-0.178184 0.21423846 0.90771163
-0.20551386 0.17474596 0.90821016
-0.19573799 0.17485912 0.90879828
-0.24285202 0.18480346 0.90897232
-0.24012105 0.18708386 0.90801466
-0.1957451 0.18725212 0.9088313
-0.24285439 0.18976074 0.9089812
-0.19561018 0.1920743 0.90820491
-0.19808021 0.19701996 0.90817922
-0.24036931 0.19966559 0.90895343
-0.2378432 0.20210209 0.90876836
-0.19563794 0.20448141 0.90833378
-0.24277513 0.21199116 0.90868455
-0.24032302 0.21201307 0.90877843
-0.26760283 0.21451493 0.90888298
-0.17582496 0.21437894 0.90830684
-0.26746443 0.21688016 0.90841287
-0.17824599 0.21678811 0.90802735
-0.17594056 0.21947496 0.90890408
-0.24297951 0.17746344 0.90944952
-0.19334355 0.17741235 0.90918767
-0.1958711 0.17993589 0.90941632
-0.24291778 0.18237512 0.90921843
-0.19587718 0.18242048 0.90944457
-0.2428721 0.19473042 0.90904748
-0.1983155 0.19477551 0.90925801
-0.24059394 0.1973722 0.90980285
-0.19581433 0.19723114 0.90915269
-0.24060196 0.20729902 0.90983319
-0.19578852 0.20711668 0.90903288
-0.19340912 0.20970131 0.90949595
-0.27038974 0.21972132 0.90992433
-0.22600943 0.17528147 0.91099334
-0.19606499 0.1900395 0.91031653
-0.19861719 0.20003635 0.91064125
-0.24087512 0.20256864 0.9108662
-0.1962038 0.20258972 0.91096103
-0.24321753 0.20989603 0.91034043
-0.24580458 0.21246874 0.91073167
-0.19360411 0.21239439 0.91041291
-0.17371055 0.214826 0.91020101
-0.24109267 0.17541528 0.9116888
-0.22855626 0.17533027 0.91124696
-0.1937831 0.17533174 0.91125464
-0.24350823 0.18033402 0.91142851
-0.19629781 0.18529652 0.91139752
-0.24364513 0.18789279 0.91194087
-0.24353252 0.19277528 0.91151941
-0.19382116 0.19275713 0.91143358
-0.1962748 0.19521093 0.91129071
-0.24341358 0.20013145 0.91107422
-0.19642644 0.20033364 0.9119947
-0.19388136 0.20275778 0.9117167
-0.19376025 0.20511474 0.91114712
-0.19133873 0.21263473 0.91144311
-0.17635858 0.217513 0.91106355
-0.17388816 0.22001284 0.91113162
-0.17153905 0.22018547 0.91184652
-0.23870887 0.17548977 0.91207594
-0.23633446 0.1755728 0.91250747
-0.23385569 0.17557923 0.91254097
-0.2312893 0.17551932 0.91222954
-0.20897342 0.17557262 0.91250658
-0.1941172 0.18061046 0.9128257
-0.19402687 0.18798758 0.9124009
-0.19411153 0.19055775 0.912799
-0.24375816 0.1979278 0.91236395
-0.19398326 0.19789132 0.9121958
-0.24382928 0.2054486 0.91263014
-0.1939863 0.20784058 0.91221011
-0.19151454 0.21034336 0.91228056
-0.18913546 0.21295129 0.91280007
-0.2711941 0.21788725 0.91263115
-0.24407741 0.1757751 0.9135589
-0.22406787 0.17570622 0.91320091
-0.21678092 0.17585286 0.91396308
-0.21410534 0.17570165 0.91317713
-0.21170683 0.17577693 0.91356844
-0.24665347 0.17832737 0.91387689
-0.19428143 0.18325357 0.91359794
-0.24653061 0.18570806 0.91342169
-0.19433878 0.19576296 0.91386765
-0.24401811 0.20311809 0.91333687
-0.24409369 0.20816176 0.91361976
-0.2489271 0.21301644 0.91307932
-0.27143407 0.21559016 0.91343868
-0.17178003 0.21551673 0.91312754
-0.17437574 0.2181392 0.91368645
-0.21937923 0.17344613 0.91440904
-0.21700281 0.173539 0.91489857
-0.2020037 0.17350815 0.91473597
-0.19702852 0.17351843 0.91479015
-0.21940498 0.17595932 0.91451639
-0.24681783 0.18343168 0.91448587
-0.19445406 0.20086415 0.91440976
-0.19204172 0.20593521 0.91479176
-0.26666337 0.21326749 0.91415542
-0.26422754 0.21331272 0.91434926
-0.26181179 0.21337515 0.91461694
-0.18692298 0.21326581 0.91414821
-0.17699939 0.21331847 0.91437393
-0.17453887 0.21335748 0.91454118
-0.21459065 0.1736051 0.91524708
-0.20457284 0.17357239 0.91507465
-0.1995907 0.17357808 0.91510469
-0.22210278 0.17612186 0.91536111
-0.19458851 0.18603748 0.91504198
-0.19229424 0.20370916 0.91599464
-0.24705631 0.21105556 0.91536945
-0.26950285 0.21354295 0.91533619
-0.25952688 0.21354645 0.91535121
-0.18468614 0.21356066 0.91541207
-0.17963164 0.21348462 0.91508615
-0.17213279 0.21845345 0.9150027
-0.22241977 0.17387454 0.91666758
-0.20736425 0.1738214 0.91638744
-0.24744774 0.18140073 0.91681981
-0.24742144 0.18887796 0.91672236
-0.24725725 0.19124979 0.91611397
-0.24738024 0.19634177 0.91656971
-0.19242954 0.20884971 0.91663915
-0.18992153 0.21133786 0.91659379
-0.25230551 0.21377009 0.91630977
-0.18241867 0.21382768 0.91655666
-0.17247242 0.21388632 0.91680801
-0.16990982 0.21630451 0.91646534
-0.21764727 0.17155311 0.91761565
-0.22515281 0.17405571 0.91762269
-0.19510442 0.17402638 0.91746807
-0.19269054 0.17910896 0.91788238
-0.24775213 0.20164129 0.91794759
-0.17760703 0.2115498 0.91751301
-0.257597 0.21401605 0.91736406
-0.25509286 0.21401308 0.91735137
-0.17017046 0.21913829 0.91787118
-0.2202815 0.17165671 0.91816986
-0.24282083 0.17416973 0.91822386
-0.24028048 0.17414261 0.91808087
-0.23787349 0.1742126 0.91844982
-0.23541461 0.17424566 0.9186241
-0.21288332 0.17424966 0.91864526
-0.21044479 0.17430396 0.91893148
-0.24791011 0.17673214 0.91853291
-0.24799356 0.19432393 0.91884208
-0.19291446 0.19434656 0.91894907
-0.24794932 0.19929761 0.91867816
-0.19291647 0.19935845 0.9189586
-0.25045025 0.21181571 0.9186663
-0.17035484 0.21436638 0.91886574
-0.21561089 0.1719238 0.91959846
-0.23320866 0.17446864 0.91979969
-0.23065852 0.1744362 0.91962862
-0.22809923 0.17439602 0.91941684
-0.19311699 0.17699783 0.91991383
-0.19312774 0.18954606 0.91996503
-0.19311832 0.19204438 0.91992015
-0.19301637 0.20196791 0.91943449
-0.18809111 0.21209118 0.91986102
-0.19318989 0.18208161 0.92026109
-0.19323188 0.18463022 0.92046112
-0.19322735 0.19717075 0.92043954
-0.24834138 0.20713712 0.92013079
-0.24846634 0.20975074 0.9205938
-0.1806107 0.21214023 0.92007375
-0.2736074 0.21480656 0.92075253
-0.223653 0.17232606 0.92175013
-0.24616924 0.17476998 0.92138839
-0.24860701 0.20484787 0.92111498
-0.25387031 0.21258266 0.92199266
-0.16835518 0.21752357 0.92163038
-0.1935595 0.18745653 0.92202169
-0.19117184 0.20769928 0.92262799
-0.19113529 0.21017404 0.92245162
-0.18601832 0.21258785 0.92201513
-0.18363039 0.21273306 0.92264491
-0.22146891 0.17006575 0.92311919
-0.21893004 0.17004818 0.92302388
-0.25675738 0.21289267 0.92333716
-0.21429344 0.17288321 0.92473024
-0.21690427 0.17043339 0.92511481
-0.26755786 0.21347752 0.92587376
-0.26238623 0.21337663 0.92543614
-0.25986856 0.21338066 0.92545366
-0.22484103 0.17071556 0.92664641
-0.22724727 0.17315027 0.92615873
-0.2702314 0.2135959 0.92638713
-0.26508185 0.21351601 0.92604065
-0.16923563 0.2161358 0.92645025
-0.19212462 0.20620696 0.92722625
-0.25289214 0.21135236 0.92762327
-0.18980245 0.21149066 0.92823029
-0.18761508 0.21187784 0.92992961
-0.17742193 0.21434768 0.92964768
-0.17501572 0.21450441 0.93032742
-0.17276812 0.21486297 0.93188256
