# .PCD v0.7 - Point Cloud Data file format
VERSION 0.7
FIELDS x y z
SIZE 4 4 4
TYPE F F F
COUNT 1 1 1
WIDTH 600
HEIGHT 1
VIEWPOINT 0 0 0 1 0 0 0
POINTS 600
DATA ascii
-0.17872761 0.2205935 0.87406874
-0.18856288 0.22095087 0.87548476
-0.2053522 0.22581643 0.8758443
-0.188668 0.22584955 0.87597281
-0.1790203 0.22572768 0.87550008
-0.23429088 0.22131531 0.87692881
-0.21269724 0.22123174 0.8765977
-0.19108248 0.22110495 0.87609529
-0.18634851 0.22115506 0.87629384
-0.17682824 0.22119793 0.87646371
-0.18886063 0.22368994 0.87686718
-0.17928281 0.22366872 0.87678397
-0.18636629 0.22595389 0.87637746
-0.18392761 0.22589271 0.87614018
-0.18151329 0.22586022 0.87601417
-0.17951825 0.21678309 0.87793535
-0.19145647 0.21914491 0.87781
-0.179445 0.21908678 0.87757713
-0.23672345 0.22135477 0.87708515
-0.23196898 0.22138065 0.87718773
-0.22734858 0.22153826 0.87781221
-0.22260161 0.22157666 0.87796438
-0.18182293 0.22146161 0.87750852
-0.19159964 0.21691424 0.87846643
-0.18923263 0.21694581 0.87859434
-0.18675999 0.21685557 0.87822884
-0.18201946 0.21691191 0.87845701
-0.20368463 0.21703379 0.8789506
-0.21313438 0.21929203 0.87839931
-0.20356597 0.21930183 0.87843853
-0.2012105 0.21934436 0.87860888
-0.18911064 0.21919931 0.87802792
-0.18683544 0.21933804 0.87858361
-0.22989446 0.2216859 0.87839723
-0.22514229 0.22172192 0.87853992
-0.21799093 0.2217554 0.8786726
-0.21547005 0.22162604 0.87816006
-0.21074583 0.22169255 0.87842357
-0.20833431 0.2216744 0.87835163
-0.20592068 0.22165351 0.8782689
-0.20349717 0.22162139 0.87814164
-0.20115861 0.22168213 0.87838233
-0.19636856 0.22168055 0.87837607
-0.1940247 0.22173822 0.87860453
-0.18442461 0.22171375 0.87850761
-0.20608214 0.2242232 0.87895751
-0.19154932 0.22403906 0.8782357
-0.18681335 0.22410132 0.87847972
-0.17723039 0.22409552 0.87845701
-0.23733698 0.21713448 0.87935835
-0.23508893 0.21727213 0.87991583
-0.20628051 0.21724443 0.87980366
-0.20143317 0.21718951 0.87958121
-0.17751762 0.21726346 0.87988073
-0.22786631 0.21964452 0.87981123
-0.21105786 0.21962278 0.87972414
-0.20620745 0.21956484 0.87949204
-0.19662277 0.21957012 0.8795132
-0.19427726 0.2196288 0.87974823
-0.1823356 0.21968736 0.87998283
-0.17743117 0.2195549 0.87945223
-0.23965168 0.22185229 0.87905651
-0.22049853 0.22186857 0.87912107
-0.19906871 0.22202167 0.87972766
-0.22301424 0.22438501 0.87959182
-0.22071588 0.22448598 0.8799876
-0.21336065 0.2243187 0.87933189
-0.20855716 0.2243083 0.87929112
-0.20375109 0.22429459 0.87923735
-0.18472284 0.22447082 0.87992823
-0.18218967 0.22430509 0.87927854
-0.24232548 0.21730892 0.88006485
-0.24004096 0.21741252 0.8804844
-0.23280227 0.21737656 0.88033879
-0.22801079 0.21738404 0.88036907
-0.21374638 0.21752048 0.8809216
-0.1992887 0.21746571 0.88069981
-0.19676006 0.21732435 0.88012731
-0.19435799 0.21732101 0.88011378
-0.18488069 0.21746086 0.88068014
-0.23751613 0.21969718 0.88002217
-0.23525065 0.21982175 0.88052112
-0.23274392 0.21972114 0.88011813
-0.22332866 0.21989934 0.88083196
-0.21602805 0.21980006 0.88043422
-0.20877062 0.21973935 0.88019109
-0.19919921 0.21976765 0.8803044
-0.18491393 0.21990098 0.88083851
-0.17534117 0.22234176 0.88099599
-0.23758475 0.22455965 0.88027638
-0.23525083 0.22462225 0.88052177
-0.23275918 0.22453399 0.88017583
-0.21850872 0.22468294 0.88075972
-0.21594556 0.22451414 0.88009799
-0.21113297 0.22449864 0.88003725
-0.20160837 0.22457746 0.88034624
-0.24521148 0.21774143 0.88181645
-0.2307387 0.21769366 0.88162297
-0.22583082 0.2175958 0.88122666
-0.22348127 0.21764696 0.88143384
-0.21137835 0.21755466 0.88106006
-0.20898631 0.21756464 0.88110048
-0.24031091 0.22005978 0.88147461
-0.23067094 0.22003219 0.88136405
-0.22584939 0.22001597 0.88129914
-0.21863079 0.22000414 0.88125175
-0.24272235 0.22247051 0.88150615
-0.19709098 0.22489923 0.88160759
-0.19455384 0.22474441 0.88100064
-0.17543238 0.22486012 0.88145423
-0.22143181 0.21799466 0.882842
-0.21899524 0.21796472 0.88272077
-0.2164492 0.21782395 0.88215065
-0.2428654 0.22019735 0.88202566
-0.22135675 0.22032644 0.88254273
-0.24533834 0.22266395 0.8822726
-0.1952012 0.17730308 0.88393211
-0.17591041 0.21824507 0.88385612
-0.24561264 0.22050527 0.88325906
-0.19771688 0.18221988 0.88440722
-0.19529246 0.18220712 0.88434535
-0.17600431 0.22077209 0.88432783
-0.24825558 0.2231244 0.8840971
-0.19784981 0.17751765 0.8850019
-0.19310482 0.17759098 0.88536751
-0.20042421 0.18248993 0.88571793
-0.19558553 0.18730897 0.88567251
-0.20523104 0.21626748 0.88562375
-0.2487848 0.21876994 0.88598174
-0.21761 0.17789468 0.88688153
-0.21502542 0.17775656 0.88619298
-0.21266402 0.17780189 0.88641894
-0.2006197 0.17783456 0.88658178
-0.20303501 0.18266669 0.88657582
-0.19331884 0.18261991 0.88634884
-0.20304424 0.18750852 0.88661611
-0.19827743 0.18757167 0.88691467
-0.19335088 0.18748307 0.88649571
-0.21262202 0.19950861 0.88624388
-0.20775969 0.21638682 0.88611245
-0.20295851 0.2164184 0.88624179
-0.19342248 0.21656057 0.88682401
-0.18378241 0.2165951 0.88696539
-0.18126102 0.2164713 0.8864584
-0.17882085 0.21644245 0.88634026
-0.24882205 0.22121811 0.88611442
-0.19595553 0.17556946 0.88734794
-0.20318574 0.17796537 0.88723397
-0.19603913 0.18048397 0.88772649
-0.19365677 0.18051888 0.88789821
-0.19595173 0.18524095 0.88733077
-0.20813714 0.18774247 0.88772231
-0.20565826 0.18768854 0.88746727
-0.20086506 0.1877306 0.88766611
-0.19350266 0.19246693 0.88719165
-0.21045177 0.1997416 0.88727891
-0.20321739 0.1997626 0.8873722
-0.20089254 0.1998561 0.88778752
-0.19835831 0.19974105 0.88727647
-0.19608715 0.19989133 0.88794398
-0.19354397 0.19976459 0.88738102
-0.20092669 0.20473084 0.8879385
-0.19834436 0.20456381 0.88721406
-0.19364592 0.20471008 0.88784844
-0.24423739 0.2166056 0.88700837
-0.24201672 0.21678221 0.88773161
-0.23948452 0.21668053 0.88731521
-0.23699252 0.21661352 0.88704079
-0.23475207 0.21677741 0.88771194
-0.22984867 0.21671718 0.8874653
-0.22738492 0.21667463 0.88729101
-0.22503102 0.21673694 0.88754624
-0.20084083 0.21674007 0.88755906
-0.19847251 0.2167958 0.88778728
-0.19599886 0.21673645 0.88754421
-0.19112459 0.21669601 0.88737857
-0.18869443 0.21668302 0.88732541
-0.19380963 0.175817 0.88859904
-0.22533076 0.17826514 0.88872844
-0.22274645 0.17813575 0.8880834
-0.22035362 0.17815834 0.88819605
-0.21082334 0.17828862 0.8888455
-0.20099606 0.18058939 0.88824505
-0.19854881 0.18056571 0.88812858
-0.20580149 0.18297771 0.88808537
-0.213202 0.18309638 0.88866132
-0.21071091 0.18303667 0.88837153
-0.20842713 0.18315774 0.88895917
-0.20112757 0.18555315 0.88882625
-0.19858877 0.18544482 0.88830733
-0.19373855 0.18543768 0.88827312
-0.20824447 0.19994447 0.88818008
-0.20581451 0.19993581 0.88814157
-0.21565345 0.20007981 0.88878125
-0.2034931 0.20245574 0.88857615
-0.20354868 0.20493382 0.88881886
-0.19611108 0.20475709 0.88805234
-0.23246221 0.21689861 0.88820827
-0.21561512 0.21699996 0.8886233
-0.21307206 0.21687698 0.8881197
-0.22288553 0.21700354 0.88863796
-0.22055142 0.21709032 0.88899332
-0.21804802 0.21701056 0.88866669
-0.2107823 0.21701197 0.88867247
-0.19878764 0.17593528 0.88919687
-0.20130928 0.17602083 0.88962924
-0.21341525 0.18085474 0.88955021
-0.20369917 0.18083964 0.88947594
-0.21592949 0.18335548 0.88991892
-0.20364586 0.18564019 0.88924319
-0.2109693 0.18811016 0.88946086
-0.19396529 0.19050294 0.88931268
-0.19638328 0.19292106 0.88928497
-0.1988699 0.19540657 0.88956481
-0.21339753 0.19781171 0.8894763
-0.21102615 0.19786157 0.88970053
-0.21352179 0.20277886 0.88999426
-0.20126748 0.2026536 0.88944453
-0.19883625 0.20264672 0.88941431
-0.19652225 0.20276064 0.88991427
-0.19392624 0.20258278 0.88913369
-0.19163531 0.20514847 0.88974983
-0.20131955 0.20998135 0.8896746
-0.19895209 0.21004222 0.88993251
-0.20621789 0.2148817 0.88988221
-0.24738728 0.21724847 0.88964093
-0.18666419 0.21713491 0.88917589
-0.17700411 0.21717775 0.88935137
-0.19668269 0.17379324 0.8906408
-0.21853466 0.17622282 0.89065003
-0.20869784 0.178543 0.89011371
-0.20633976 0.17860207 0.89040816
-0.19172518 0.17855372 0.89016712
-0.22341643 0.18109962 0.89075464
-0.21606936 0.1810469 0.89049536
-0.22336535 0.1834857 0.89055097
-0.20880786 0.18591988 0.89058298
-0.20629787 0.18584566 0.89022738
-0.2137254 0.18840246 0.89084297
-0.21846874 0.19073188 0.8903814
-0.21615294 0.19083008 0.89083982
-0.21374014 0.19084391 0.89090437
-0.20889179 0.19085175 0.89094096
-0.20384631 0.19067556 0.89011848
-0.20159319 0.19326793 0.89088386
-0.19901221 0.19311987 0.89020139
-0.19183226 0.19322027 0.89066422
-0.21355651 0.19553271 0.89013898
-0.21122141 0.19561723 0.89052379
-0.20398816 0.19566426 0.89073789
-0.20145427 0.19556147 0.89026994
-0.19424747 0.19563539 0.89060646
-0.20144923 0.19798326 0.8902477
-0.2039014 0.198008 0.89035898
-0.19914031 0.1981004 0.89077443
-0.21131623 0.20299059 0.89092356
-0.20631711 0.20285089 0.89031041
-0.20639466 0.20535488 0.89064503
-0.20158589 0.20783083 0.89085162
-0.19909663 0.20776725 0.89057904
-0.20383205 0.21492372 0.89005619
-0.22345485 0.21512936 0.89090782
-0.22094558 0.21505073 0.89058214
-0.20885225 0.21509664 0.89077228
-0.20148186 0.21500479 0.89039189
-0.1748767 0.22240369 0.89086342
-0.19929548 0.17395474 0.89146847
-0.2212183 0.17642689 0.89168143
-0.21620935 0.17630637 0.89107233
-0.21379156 0.17631555 0.89111871
-0.20409347 0.17633118 0.89119774
-0.22847587 0.1788307 0.89154804
-0.22605811 0.18127091 0.89159721
-0.22127824 0.18133716 0.89192301
-0.21874702 0.18125431 0.89151555
-0.21135543 0.18116756 0.89108884
-0.20670706 0.18135142 0.89199317
-0.22108358 0.18360673 0.89113837
-0.2186572 0.18360902 0.89114946
-0.21155728 0.18620315 0.89193988
-0.19190527 0.18843636 0.89100325
-0.21147183 0.19098854 0.89157957
-0.20647877 0.19086611 0.89100802
-0.20165919 0.19090199 0.89117551
-0.19920643 0.19087942 0.89107013
-0.19684118 0.19094117 0.89135844
-0.21620187 0.19573094 0.89104146
-0.20898505 0.19579624 0.89133871
-0.20653979 0.19578144 0.89127135
-0.21642643 0.19836561 0.891967
-0.20907253 0.19830887 0.89171183
-0.20657665 0.19824627 0.89143038
-0.19691615 0.19830579 0.89169794
-0.19436868 0.19818664 0.89116222
-0.19196159 0.20063888 0.89126468
-0.21636266 0.20316844 0.89170414
-0.20895799 0.20305887 0.89122325
-0.21394528 0.20561184 0.89175946
-0.21151336 0.20561074 0.89175469
-0.20891213 0.20544311 0.89102769
-0.19682948 0.20793673 0.89130551
-0.19437267 0.20790757 0.89118052
-0.19694297 0.21048757 0.89181942
-0.23813573 0.21522883 0.89131969
-0.22610457 0.21534008 0.89178044
-0.21862662 0.21515761 0.89102483
-0.19932172 0.21529309 0.89158589
-0.19454952 0.215391 0.89199132
-0.17992675 0.21535006 0.8918218
-0.2020227 0.17421106 0.89278197
-0.22383344 0.17657247 0.89241725
-0.21179786 0.1766787 0.89295417
-0.2092519 0.17658426 0.89247686
-0.20919907 0.18140395 0.89225155
-0.19225433 0.18147966 0.8926239
-0.22616094 0.18378483 0.89200276
-0.19224383 0.18390276 0.89257514
-0.22395366 0.18640287 0.89289653
-0.19226247 0.19122034 0.89266169
-0.21409398 0.19359232 0.89237922
-0.21898863 0.19605139 0.89250022
-0.19704865 0.19600695 0.89229792
-0.21886648 0.20080495 0.8920024
-0.19231632 0.20344359 0.89291173
-0.20445469 0.20827956 0.89277506
-0.1921452 0.2081261 0.8921172
-0.2044387 0.21069664 0.8927052
-0.19458254 0.21056388 0.89214271
-0.24093993 0.21556397 0.89270765
-0.23596396 0.21546425 0.89229465
-0.23347925 0.21541584 0.89209419
-0.22860345 0.21540418 0.89204592
-0.21650067 0.215459 0.89227295
-0.21179442 0.21562 0.89293963
-0.19703874 0.21545419 0.89225304
-0.1921431 0.21541904 0.89210743
-0.18972465 0.21543415 0.89217001
-0.18245462 0.21546449 0.89229566
-0.17514466 0.22031242 0.89222848
-0.19480312 0.17428367 0.89315408
-0.22649096 0.17674801 0.89330441
-0.20701824 0.17675425 0.893336
-0.19243635 0.17678058 0.89346904
-0.21424955 0.18643025 0.89302766
-0.19252256 0.18660593 0.89386922
-0.22422393 0.19150148 0.89397407
-0.22178319 0.1914981 0.89395833
-0.21924523 0.19384544 0.89354599
-0.21676701 0.19380739 0.89337063
-0.21189658 0.19380735 0.89337039
-0.20452376 0.19374362 0.8930766
-0.19253945 0.19636935 0.89394772
-0.21679036 0.20600551 0.89346689
-0.1923594 0.21079259 0.89311171
-0.20227131 0.21341065 0.89388067
-0.24351542 0.21568985 0.89322895
-0.2313212 0.215671 0.89315087
-0.21430081 0.21569285 0.89324135
-0.18761235 0.21580179 0.89369249
-0.18521035 0.21584147 0.89385682
-0.17787133 0.21580569 0.89370871
-0.22195229 0.17457362 0.89463997
-0.21936105 0.17445225 0.89401805
-0.21692303 0.1744514 0.89401364
-0.20492133 0.17460732 0.8948127
-0.22929382 0.18190984 0.89473981
-0.22915505 0.18423718 0.8941983
-0.22669044 0.18665227 0.89409119
-0.22187729 0.18670373 0.89433765
-0.21950762 0.18676171 0.89461541
-0.21706337 0.18675682 0.89459199
-0.21951081 0.18920304 0.89462841
-0.21700294 0.18914266 0.89434296
-0.22686608 0.19167496 0.89478391
-0.20963465 0.19396764 0.89410931
-0.2072389 0.19400646 0.89428818
-0.22203934 0.1965985 0.89499086
-0.19272093 0.19899349 0.89479029
-0.22187042 0.2013244 0.89430994
-0.21958351 0.20390223 0.8949247
-0.22679859 0.20624781 0.89451772
-0.22433265 0.20622241 0.89440757
-0.22190514 0.20623218 0.89444989
-0.21951623 0.20627843 0.89465052
-0.21219869 0.21115425 0.89464408
-0.1902532 0.21115695 0.89465547
-0.20494035 0.213653 0.89489573
-0.20002346 0.21361218 0.89472479
-0.24622525 0.21593104 0.8942278
-0.21477789 0.17468871 0.89522988
-0.20990105 0.17469178 0.89524555
-0.20753872 0.17475742 0.89558196
-0.22711386 0.1894426 0.89576119
-0.2245391 0.18933041 0.89523071
-0.22448999 0.2014876 0.89503485
-0.21003947 0.20899364 0.89583588
-0.20742011 0.20881499 0.89507014
-0.22693652 0.21125282 0.89506173
-0.22452991 0.21128406 0.89519405
-0.22228289 0.21146779 0.89597249
-0.21492003 0.21143235 0.89582235
-0.20988153 0.21127656 0.89516228
-0.20741802 0.21125269 0.89506114
-0.19537559 0.21386383 0.89577883
-0.22735271 0.17497621 0.89670324
-0.2247438 0.17484812 0.89604682
-0.21259636 0.17490156 0.89632064
-0.22978313 0.1774098 0.89664918
-0.22966985 0.187094 0.89620715
-0.22233078 0.18952812 0.89616555
-0.22972316 0.19202439 0.89641517
-0.22488736 0.19451213 0.89661914
-0.22244173 0.19451074 0.89661276
-0.2248029 0.1968822 0.89628243
-0.21990973 0.19931905 0.89625418
-0.22722028 0.2017456 0.89618093
-0.22740611 0.20435545 0.89691389
-0.22483197 0.20423797 0.89639831
-0.22229445 0.20415157 0.8960191
-0.22739042 0.20923069 0.89685196
-0.21257417 0.20908491 0.89622712
-0.22982632 0.21166727 0.89681768
-0.22477849 0.21396083 0.8961851
-0.20768961 0.21397229 0.89623308
-0.19789562 0.21394846 0.8961333
-0.22740245 0.21413136 0.8968994
-0.22244851 0.21406946 0.89664012
-0.21025589 0.21409783 0.89675897
-0.1930985 0.21404634 0.89654332
-0.2516847 0.21887678 0.89630896
-0.22767285 0.19725199 0.89796585
-0.22278477 0.19970629 0.89799547
-0.21534549 0.2094042 0.8975957
-0.22012894 0.21174513 0.8971476
-0.21772376 0.21178435 0.89731371
-0.22998565 0.2142603 0.89743948
-0.21279648 0.21419463 0.8971644
-0.19090445 0.21432678 0.89771795
-0.17611654 0.21908936 0.89717948
-0.23015249 0.18993522 0.89809048
-0.22785167 0.1949573 0.89867121
-0.23025247 0.20716153 0.89848065
-0.22540772 0.2096604 0.89869386
-0.22034226 0.21439819 0.89801705
-0.21810985 0.21461017 0.89890492
-0.21551947 0.21447074 0.89832091
-0.19362824 0.17542495 0.89900285
-0.23308952 0.18052171 0.89997846
-0.22556049 0.19999705 0.8993029
-0.23053625 0.20251259 0.89958799
-0.19134198 0.20746006 0.89977539
-0.23052397 0.20985781 0.89954007
-0.22306925 0.20976497 0.89914215
-0.21821007 0.209806 0.89931798
-0.23535283 0.21469326 0.89925295
-0.23294969 0.21473758 0.89943856
-0.25014275 0.21721621 0.89955002
-0.23078583 0.17572917 0.90056187
-0.19159862 0.18072306 0.9009822
-0.23088397 0.19790637 0.90094483
-0.22819693 0.2001594 0.90003294
-0.22102243 0.2101492 0.90078908
-0.19156171 0.21015376 0.90080863
-0.24065086 0.21504676 0.90073359
-0.23098563 0.1955366 0.9013415
-0.19174288 0.20297918 0.90166062
-0.23098478 0.2053635 0.90133822
-0.23339029 0.21268736 0.90113974
-0.23831116 0.21515109 0.90117055
-0.17693788 0.21765414 0.90136355
-0.19199729 0.18356013 0.90285695
-0.19191705 0.19086346 0.90247959
-0.19194026 0.20564844 0.90258878
-0.24353804 0.21542883 0.90233392
-0.23394349 0.18364528 0.90327573
-0.19210945 0.18612984 0.90338433
-0.19203041 0.19589914 0.90301269
-0.2315831 0.20096891 0.90367293
-0.24642263 0.215801 0.90389276
-0.18221758 0.21562998 0.90317643
-0.23427549 0.17897454 0.90455759
-0.23420073 0.188777 0.90426898
-0.19234611 0.19375569 0.90449727
-0.19226804 0.20107059 0.90413016
-0.23434602 0.21109191 0.90482992
-0.23669314 0.21345074 0.90437412
-0.18989606 0.21596292 0.90457094
-0.1849162 0.21590635 0.90433407
-0.18008988 0.2160309 0.90485567
-0.22469634 0.1742631 0.90570056
-0.21230368 0.17422315 0.90549296
-0.19257456 0.17917515 0.90557152
-0.23455159 0.18659122 0.90562367
-0.19250037 0.18897608 0.90522259
-0.19011629 0.21374479 0.90561998
-0.18759167 0.21614879 0.90534949
-0.22747096 0.17449772 0.90691996
-0.21758778 0.17450196 0.90694201
-0.21512619 0.17451054 0.90698659
-0.21005081 0.17440195 0.90642226
-0.20271896 0.17447118 0.90678203
-0.20010744 0.1743494 0.90614909
-0.19762488 0.17433833 0.90609157
-0.19278587 0.19914097 0.90656519
-0.2225882 0.17454591 0.90717047
-0.22024605 0.17464951 0.90770888
-0.20773673 0.17453361 0.90710646
-0.23493558 0.20915033 0.90710628
-0.24506606 0.21430545 0.9079954
-0.24249426 0.21421996 0.90763324
-0.23996982 0.214175 0.90744275
-0.183081 0.21417814 0.90745604
-0.20562586 0.1748412 0.90870512
-0.2353372 0.1921699 0.90865695
-0.23524901 0.1945738 0.90831643
-0.18829469 0.21448176 0.90874243
-0.18572034 0.21436948 0.90826672
-0.18072098 0.21431281 0.90802664
-0.25016186 0.21690683 0.90852457
-0.23060519 0.17500018 0.90953135
-0.19095613 0.21220952 0.90962052
-0.17848496 0.21707878 0.90924478
-0.21101868 0.17272343 0.91059887
-0.19607058 0.17515624 0.91034251
-0.23570062 0.20487006 0.91006017
-0.19121581 0.21001527 0.91085756
-0.24835069 0.21500634 0.91096503
-0.21371157 0.17289391 0.91149771
-0.23604232 0.20765133 0.91137952
-0.17897421 0.21518855 0.91173708
-0.23621005 0.20034076 0.91202712
-0.23645324 0.20303562 0.91296607
-0.23879942 0.21286307 0.91242194
-0.21666175 0.17326625 0.91346067
-0.20923862 0.17330495 0.91366464
-0.21188921 0.17094357 0.9143554
-0.22691135 0.17348783 0.9146288
-0.22200923 0.1735536 0.91497558
-0.21939863 0.17346148 0.91448992
-0.18957692 0.21344835 0.91493064
-0.18707035 0.21343395 0.91486895
-0.18451156 0.21335877 0.91454673
-0.18207896 0.21342947 0.91484976
-0.22458768 0.17361882 0.91531944
-0.21489474 0.17135274 0.91654402
-0.20741946 0.17386767 0.9166314
-0.20491914 0.17386621 0.91662371
-0.1924264 0.2088463 0.91662419
-0.21009803 0.17151603 0.91741735
-0.20001265 0.17394505 0.91703933
-0.20258632 0.17400858 0.91737425
-0.24018459 0.21159625 0.91771448
-0.19019763 0.2116451 0.91792631
-0.18511474 0.2115552 0.91753644
-0.18260129 0.21154086 0.91747421
-0.24254154 0.21397023 0.91716766
-0.18012552 0.21407159 0.91760212
-0.25271863 0.21662191 0.91781008
-0.21287094 0.16923167 0.91859186
-0.19274381 0.20668811 0.91813618
-0.18773447 0.21168903 0.91811681
-0.24798629 0.21435457 0.91881514
-0.24528944 0.21418667 0.91809541
-0.21798816 0.1718218 0.9190529
-0.17789604 0.21690418 0.91900605
-0.2109036 0.16966332 0.92093492
-0.19818673 0.17453843 0.92016762
-0.18064898 0.21218519 0.92026877
-0.22108462 0.17228256 0.92151743
-0.21641508 0.17004901 0.92302841
-0.20901239 0.17268516 0.92367095
-0.1788507 0.21554965 0.92393774
-0.22443464 0.17292832 0.92497152
-0.19153731 0.2106161 0.92439181
-0.18894464 0.21053484 0.92403519
-0.18642403 0.21053277 0.92402607
-0.25192434 0.21558128 0.92407334
-0.21960446 0.17057203 0.92586732
-0.20696028 0.17307459 0.92575389
-0.17927964 0.21354206 0.92615366
-0.20484787 0.17342259 0.92761528
-0.20232433 0.17342687 0.92763817
-0.21004197 0.17100562 0.92822087
-0.1924168 0.20905189 0.92863643
-0.18516925 0.21197973 0.93037683
-0.18279712 0.21217 0.93121189
-0.18081796 0.21282817 0.93410063
-0.18947807 0.21142176 0.93916368
-0.18450345 0.21158849 0.93990433
-0.17931716 0.21407622 0.93957829
-0.1870952 0.2116221 0.9400537
-0.1821962 0.21188478 0.94122052
-0.18819863 0.21029264 0.94559783
-0.18557534 0.21024081 0.94536477
-0.18042554 0.21282248 0.94538593
-0.18318512 0.2104553 0.94632924
-0.18137917 0.21135676 0.95038271
-0.19054848 0.21030863 0.95740455
-0.18799946 0.21037656 0.95771384
-0.18551113 0.21051528 0.95834535
