# .PCD v0.7 - Point Cloud Data file format
VERSION 0.7
FIELDS x y z
SIZE 4 4 4
TYPE F F F
COUNT 1 1 1
WIDTH 733
HEIGHT 1
VIEWPOINT 0 0 0 1 0 0 0
POINTS 733
DATA ascii
-0.20916571 0.22478333 0.87183738
-0.20665558 0.22463806 0.87127393
-0.20431654 0.22467756 0.87142712
-0.20204705 0.22479537 0.87188405
-0.19977778 0.22491622 0.87235278
-0.20465554 0.22742966 0.87287301
-0.20245428 0.22048563 0.87364131
-0.20241638 0.2228253 0.87347776
-0.21200351 0.22527353 0.87373865
-0.19770709 0.22526623 0.87371033
-0.20966905 0.22770646 0.8739354
-0.20719998 0.22761104 0.87356913
-0.20240827 0.2275781 0.87344277
-0.21208878 0.22059886 0.87409002
-0.20978747 0.22068441 0.87442899
-0.20753732 0.22082636 0.87499142
-0.2050866 0.22075571 0.87471151
-0.2001839 0.22060798 0.87412614
-0.19797185 0.22079833 0.87488037
-0.20751572 0.22318821 0.87490034
-0.20032856 0.22315185 0.87475783
-0.21462984 0.22553061 0.87473577
-0.2147529 0.22088841 0.87523729
-0.21243492 0.22334541 0.87551659
-0.21004337 0.22334006 0.87549561
-0.20516834 0.22322896 0.87506008
-0.19820251 0.22344315 0.87589973
-0.21503946 0.22357209 0.87640518
-0.21742789 0.22596049 0.87640309
-0.19601798 0.22606488 0.87680793
-0.2177273 0.22148721 0.87760997
-0.19625637 0.22155391 0.87787426
-0.22011425 0.22626624 0.87758893
-0.21805987 0.22422141 0.87895048
-0.22278772 0.22655229 0.87869841
-0.21574363 0.21951066 0.87927502
-0.21331976 0.21948276 0.87916332
-0.2039244 0.21968797 0.87998527
-0.19418468 0.22192104 0.87932897
-0.22065793 0.22202897 0.87975657
-0.19657332 0.22430854 0.87929201
-0.21851689 0.21988952 0.88079262
-0.21116184 0.21973099 0.88015759
-0.2088201 0.21979143 0.8803997
-0.20645431 0.21982768 0.8805449
-0.20165536 0.21982931 0.8805514
-0.21875575 0.21772636 0.88175541
-0.21626808 0.21764168 0.88141245
-0.20677635 0.21776661 0.88191843
-0.19938359 0.21997103 0.88111913
-0.22602737 0.22259355 0.88199365
-0.22361811 0.22258848 0.88197356
-0.19232388 0.22254139 0.881787
-0.22104831 0.22482409 0.88131303
-0.19460793 0.22480689 0.88124561
-0.22123887 0.21780472 0.88207275
-0.21416207 0.21794349 0.88263476
-0.21176383 0.2179514 0.88266677
-0.20924306 0.21783194 0.88218296
-0.20216262 0.21797602 0.88276649
-0.19967271 0.21788475 0.88239688
-0.19736628 0.21799393 0.88283902
-0.22145283 0.22042207 0.88292581
-0.19735478 0.22038755 0.88278753
-0.23099788 0.22274992 0.88261324
-0.22855818 0.22271694 0.88248259
-0.22383976 0.22521561 0.88284779
-0.20466898 0.21808265 0.88319832
-0.19514944 0.22061478 0.88369769
-0.22639637 0.22536503 0.88343352
-0.22424111 0.21838696 0.88443077
-0.23397905 0.22329897 0.88478875
-0.19053055 0.2232565 0.88462049
-0.2289757 0.22553369 0.88409466
-0.19284253 0.22555164 0.88416499
-0.23165964 0.21856253 0.88514173
-0.22941782 0.21872549 0.88580173
-0.22687548 0.21860236 0.88530308
-0.19546196 0.21855542 0.88511294
-0.19303566 0.21854 0.88505048
-0.19303404 0.22095063 0.88504303
-0.23171483 0.22102793 0.88535261
-0.22934356 0.22106847 0.88551503
-0.22692783 0.22106655 0.88550735
-0.22452734 0.22107962 0.88555968
-0.23442206 0.21888903 0.886464
-0.19098487 0.21895468 0.8867299
-0.2367225 0.22361226 0.88603014
-0.20817076 0.21681495 0.88786566
-0.19114901 0.22156203 0.887492
-0.23960476 0.224049 0.8877607
-0.21067066 0.21447594 0.88820183
-0.20825015 0.21447654 0.88820428
-0.22282821 0.21694773 0.88840944
-0.21063019 0.21685536 0.88803118
-0.19863482 0.2169731 0.88851327
-0.22534333 0.21703775 0.88877803
-0.21811351 0.21707574 0.8889336
-0.21326396 0.21707231 0.88891959
-0.23748149 0.21948336 0.88887095
-0.23494591 0.22179991 0.8884449
-0.21109483 0.18337014 0.88999009
-0.20845497 0.18318219 0.88907784
-0.20856544 0.20995173 0.88954908
-0.22565006 0.2149072 0.88998777
-0.21350193 0.21488878 0.88991147
-0.22798064 0.21724227 0.8896156
-0.2205686 0.21710724 0.88906258
-0.21584435 0.21723066 0.88956803
-0.20624401 0.21733493 0.88999498
-0.20379888 0.2173145 0.88991135
-0.20134066 0.21727946 0.88976789
-0.19396505 0.21716805 0.88931161
-0.18909746 0.21956971 0.88922065
-0.23778309 0.2221881 0.88999981
-0.24252637 0.22451347 0.88960105
-0.18906967 0.22438449 0.88909
-0.21132451 0.17871246 0.89095849
-0.20867173 0.17852066 0.89000237
-0.20635605 0.17861617 0.89047843
-0.21131308 0.1884167 0.89091033
-0.2233064 0.21498644 0.89031595
-0.20624721 0.21491228 0.89000881
-0.23545811 0.21742938 0.89038181
-0.23298953 0.21739063 0.89022309
-0.23068534 0.21750605 0.89069575
-0.19656745 0.21736519 0.8901189
-0.24038711 0.21992497 0.89065939
-0.20421706 0.17886868 0.8917374
-0.20900114 0.1812323 0.89140731
-0.21393614 0.18372683 0.89172131
-0.20651689 0.18361378 0.89117253
-0.21386293 0.18852369 0.89141619
-0.20907643 0.18858974 0.89172846
-0.2090507 0.20557939 0.89161873
-0.20908977 0.20804867 0.89178532
-0.21138044 0.21034004 0.89119428
-0.20658034 0.21039951 0.89144629
-0.21157131 0.21296141 0.89199901
-0.20895481 0.21277297 0.89120972
-0.23568209 0.21520686 0.89122874
-0.22856556 0.21536848 0.89189804
-0.21642356 0.21538226 0.89195514
-0.20419671 0.21530822 0.89164853
-0.20181496 0.21536024 0.89186394
-0.19919465 0.21515585 0.8910175
-0.1969219 0.21532644 0.89172399
-0.19453047 0.21536991 0.891904
-0.23830761 0.21781552 0.89196306
-0.19194068 0.21762128 0.89116764
-0.24069908 0.22264133 0.8918153
-0.18960416 0.22258843 0.89160341
-0.21411335 0.17901362 0.89245999
-0.21158075 0.18136071 0.89203882
-0.20681021 0.1814419 0.89243823
-0.21176669 0.18638746 0.89282274
-0.20917116 0.19597059 0.89213246
-0.20680933 0.19603695 0.89243448
-0.21159916 0.20569414 0.89211643
-0.2068565 0.20581441 0.89263803
-0.23844878 0.21551177 0.89249146
-0.23354025 0.21547213 0.89232731
-0.2312592 0.21561319 0.89291143
-0.22143206 0.21552423 0.89254302
-0.24331485 0.22037779 0.89249325
-0.20212889 0.17917234 0.89325124
-0.20452489 0.18400709 0.89308155
-0.21436355 0.18652944 0.89350283
-0.20942035 0.18646525 0.89319533
-0.20713043 0.18903209 0.89382011
-0.21184094 0.19132191 0.89313579
-0.20716628 0.19393848 0.89397484
-0.21204008 0.20124909 0.89397538
-0.20944428 0.20109646 0.89329737
-0.20717159 0.20125413 0.89399773
-0.211898 0.20841984 0.89337635
-0.20711227 0.20850508 0.89374173
-0.21448107 0.21100052 0.89399272
-0.21447255 0.2134289 0.89395714
-0.20710124 0.21336611 0.8936941
-0.24102028 0.21563587 0.89300537
-0.21911231 0.21563561 0.8930043
-0.19254833 0.21587338 0.89398897
-0.24126291 0.21828958 0.89390433
-0.1899246 0.21809566 0.89311022
-0.1875761 0.22063126 0.89351976
-0.24348705 0.22296827 0.89312488
-0.21707711 0.17945263 0.89464861
-0.21448724 0.18176317 0.89401841
-0.20475432 0.18177639 0.89408338
-0.21697859 0.18424633 0.89424264
-0.21712054 0.19168434 0.89482766
-0.21465068 0.1916569 0.89469963
-0.21205324 0.19638762 0.89403087
-0.20978323 0.19898297 0.89474297
-0.21468577 0.20144506 0.8948459
-0.20478569 0.21105427 0.89422041
-0.2439381 0.21606424 0.89477938
-0.18771429 0.22323118 0.89417803
-0.21483774 0.17717834 0.89547938
-0.21249868 0.1772633 0.89590883
-0.20270769 0.17724358 0.89580911
-0.21975552 0.17964862 0.89562571
-0.21971962 0.18450114 0.89547938
-0.2025501 0.18442559 0.89511269
-0.2075559 0.18697897 0.89565611
-0.20992734 0.19179785 0.89535761
-0.20748037 0.19179198 0.89533019
-0.20985787 0.19417417 0.89506131
-0.21484919 0.19671628 0.89552706
-0.20508657 0.19671784 0.89553422
-0.20740913 0.19904518 0.89502275
-0.20512545 0.20163822 0.89570397
-0.21236558 0.20399861 0.89534771
-0.21000215 0.20407356 0.89567673
-0.21474253 0.20637803 0.89508247
-0.20514335 0.20653933 0.89578211
-0.19039707 0.21619767 0.89533198
-0.2441189 0.21866521 0.89544255
-0.24647026 0.22102579 0.89511758
-0.20525064 0.17733093 0.89625061
-0.20041612 0.17982022 0.89648122
-0.21758617 0.18231787 0.8967467
-0.20279954 0.18220977 0.89621502
-0.21741004 0.1870551 0.89602077
-0.20539379 0.18723358 0.89687574
-0.2174819 0.18956013 0.89631689
-0.20530097 0.1895926 0.89647043
-0.2126126 0.19446222 0.89638913
-0.21753572 0.1969385 0.89653873
-0.21253298 0.19927442 0.89605349
-0.20537816 0.1994421 0.89680749
-0.21757959 0.20186685 0.89671952
-0.20765726 0.20416853 0.89609349
-0.2176322 0.20680547 0.89693636
-0.21508455 0.20915046 0.8965081
-0.20528601 0.20912643 0.8964051
-0.20521718 0.2139416 0.89610457
-0.22729556 0.21403071 0.89647782
-0.18816967 0.21644282 0.89634722
-0.1881187 0.21882683 0.8961044
-0.18578066 0.22139412 0.89660925
-0.18569148 0.22373068 0.89617884
-0.20308544 0.17512749 0.89747846
-0.20070216 0.17518258 0.89776075
-0.21785219 0.177646 0.897843
-0.2103852 0.17754065 0.8973105
-0.20791534 0.17752019 0.89720714
-0.20074001 0.17766322 0.89793003
-0.22033627 0.18257117 0.89799261
-0.20308495 0.18735895 0.89747626
-0.20299792 0.18972398 0.89709169
-0.22016172 0.19220991 0.89728123
-0.2055078 0.19467579 0.89737356
-0.21522084 0.19950186 0.89707619
-0.21521832 0.20439003 0.8970657
-0.2032008 0.207048 0.89798826
-0.21783811 0.21189557 0.89778495
-0.20309351 0.21183166 0.89751416
-0.22511198 0.21427827 0.8975147
-0.21784911 0.21435361 0.89783031
-0.20318238 0.21437189 0.8979069
-0.20060062 0.21422857 0.89730656
-0.19823796 0.21431856 0.8976835
-0.24725528 0.21683434 0.89796859
-0.18596843 0.21672493 0.89751548
-0.18359265 0.21680842 0.89786124
-0.18346679 0.22155128 0.89724571
-0.2229183 0.18023191 0.8985337
-0.22296844 0.18517208 0.89873582
-0.22043629 0.18755184 0.89840025
-0.20089351 0.18759701 0.89861661
-0.20083481 0.18999097 0.89835405
-0.2057683 0.19247337 0.89851105
-0.2179624 0.19487618 0.89829725
-0.21550514 0.19486836 0.89826119
-0.22036746 0.1972858 0.89811975
-0.2033785 0.19742942 0.89877355
-0.21801805 0.19982441 0.89852661
-0.22051808 0.20232025 0.89873362
-0.20322712 0.20217864 0.89810455
-0.21800905 0.20471443 0.89848948
-0.20571236 0.20466369 0.89826679
-0.20082153 0.21201587 0.89829469
-0.24262066 0.21461734 0.89893496
-0.24010089 0.21455531 0.89867514
-0.23771453 0.21461244 0.8989144
-0.2302891 0.214543 0.89862359
-0.19594252 0.21448441 0.89837813
-0.24729076 0.21931353 0.89809746
-0.24975714 0.22177786 0.89816332
-0.18122277 0.22179817 0.89824557
-0.19863752 0.17552055 0.8994928
-0.22071804 0.17798345 0.89954853
-0.19864736 0.18043326 0.89953744
-0.20113491 0.18537 0.89969641
-0.2206976 0.19022596 0.8994652
-0.22327171 0.19278337 0.89995825
-0.20349236 0.19508867 0.89927673
-0.2036303 0.2001268 0.89988631
-0.20113084 0.2025329 0.89967823
-0.20364505 0.20504755 0.89995152
-0.20109417 0.20739985 0.8995142
-0.21831447 0.20990637 0.89974821
-0.20362248 0.20993052 0.89985174
-0.22814614 0.21237886 0.89983261
-0.22569768 0.21238293 0.89984989
-0.22072539 0.21231887 0.89957845
-0.19872466 0.21239179 0.89988744
-0.22320184 0.21479441 0.89967662
-0.22070166 0.21474789 0.89948177
-0.18152076 0.21725789 0.89972258
-0.18629333 0.21955432 0.8990835
-0.18395591 0.21968967 0.89963776
-0.2524451 0.22198865 0.89901698
-0.25512433 0.22218779 0.89982343
-0.21604487 0.17571922 0.90051091
-0.22586206 0.18062738 0.90050524
-0.22347035 0.18313357 0.90075886
-0.20377351 0.19290353 0.90051919
-0.22104426 0.19543606 0.90087807
-0.22097009 0.20028013 0.90057576
-0.22083002 0.20751299 0.90000492
-0.20135184 0.21012066 0.90066677
-0.22343488 0.21256374 0.90061593
-0.19650836 0.21264789 0.90097249
-0.24538207 0.21488973 0.90007591
-0.23564494 0.21495973 0.90036905
-0.23315115 0.21492329 0.90021646
-0.25044206 0.21747611 0.90062636
-0.17928113 0.21751615 0.90079212
-0.18175235 0.2199907 0.9008705
-0.17927076 0.22241412 0.90074003
-0.21869637 0.17587753 0.90132219
-0.2064651 0.17592271 0.90155369
-0.19901191 0.17830788 0.90118819
-0.20158364 0.18332566 0.90170366
-0.22614227 0.18576683 0.90162247
-0.2014403 0.19793221 0.90106249
-0.22362229 0.19800007 0.90137136
-0.22367756 0.2029642 0.9015941
-0.22115 0.20535684 0.90130901
-0.20151724 0.20537908 0.90140665
-0.22368436 0.20788573 0.90162152
-0.19904628 0.20782171 0.90134388
-0.23105699 0.21280071 0.90161997
-0.194207 0.21527509 0.90169001
-0.18926336 0.21524335 0.90155703
-0.18687795 0.21532641 0.90190494
-0.25569293 0.21776648 0.90182883
-0.25324643 0.21777658 0.90187067
-0.25059438 0.22006485 0.90117413
-0.23140594 0.17620134 0.90298164
-0.22638628 0.17612596 0.90259534
-0.22132248 0.17601211 0.90201193
-0.21402515 0.17607704 0.90234458
-0.19682248 0.17609031 0.90241265
-0.22646092 0.17864516 0.90289289
-0.22384 0.17851774 0.90224886
-0.19688252 0.18106519 0.90268791
-0.19927135 0.18591942 0.902363
-0.22645734 0.18848675 0.90287864
-0.22397001 0.18846469 0.9027729
-0.22396314 0.19091965 0.90274525
-0.22627638 0.19325441 0.90215719
-0.20170163 0.19572964 0.9022314
-0.20171657 0.20066319 0.90229827
-0.19921164 0.20307642 0.90209264
-0.2214126 0.21052016 0.90237921
-0.1993508 0.21060033 0.90272284
-0.24363464 0.21305369 0.90269184
-0.24838863 0.21536931 0.90208465
-0.17964734 0.2204209 0.90263218
-0.22904329 0.17627732 0.90337104
-0.22410671 0.17626813 0.90332395
-0.2117997 0.17627195 0.90334344
-0.20932649 0.17626281 0.90329665
-0.23165621 0.18132 0.9039582
-0.22900985 0.18117577 0.90323919
-0.226531 0.18362425 0.90317231
-0.19958238 0.18374607 0.90377146
-0.20202671 0.19358182 0.90368557
-0.22411467 0.19597362 0.90335602
-0.1995545 0.19603637 0.90364522
-0.22651146 0.19837856 0.90309441
-0.22425091 0.20102055 0.90390515
-0.22657011 0.2033546 0.9033283
-0.19712751 0.2034633 0.90381116
-0.22414379 0.20584998 0.90347338
-0.19946104 0.20579271 0.90322202
-0.19716728 0.20843263 0.90399355
-0.22426128 0.21088591 0.903947
-0.24621207 0.21315484 0.9031204
-0.24132107 0.21318358 0.90324217
-0.23883399 0.21316127 0.90314764
-0.2364756 0.21325457 0.90354294
-0.23387574 0.21312976 0.90301412
-0.25132865 0.21578236 0.90381467
-0.19206034 0.21562448 0.90315342
-0.1847367 0.21569677 0.90345621
-0.17728376 0.21807961 0.90312558
-0.25627095 0.22072256 0.90386748
-0.25356981 0.22051616 0.90302229
-0.19489105 0.17656904 0.90486598
-0.23182642 0.17898737 0.90462244
-0.19722876 0.1789187 0.90427542
-0.22943123 0.17904252 0.90490115
-0.22935863 0.18638337 0.90461481
-0.22941168 0.18889287 0.90482402
-0.2293503 0.19377382 0.9045819
-0.22943328 0.19877721 0.90490925
-0.1997456 0.20115519 0.90451056
-0.22686855 0.20855358 0.90451813
-0.19719441 0.2109258 0.90411794
-0.25645545 0.21348478 0.90451831
-0.25408673 0.21356617 0.90486318
-0.24898456 0.21342118 0.90424889
-0.19472946 0.21338975 0.90411574
-0.18747827 0.21355177 0.9048022
-0.25646719 0.21596022 0.90455967
-0.25408167 0.21602838 0.90484512
-0.25879589 0.21831036 0.90408117
-0.23213972 0.17429088 0.90584499
-0.23462825 0.17677464 0.90591961
-0.19506715 0.18166609 0.90568364
-0.22966594 0.18416394 0.90582681
-0.19742824 0.18650189 0.90519005
-0.23204303 0.18902723 0.90546763
-0.20004806 0.18911336 0.90588021
-0.22702216 0.19142412 0.90513057
-0.19992638 0.19146611 0.90532917
-0.19996524 0.1939716 0.90550518
-0.22707677 0.19640583 0.9053483
-0.19992942 0.19887249 0.90534294
-0.2271937 0.20144516 0.90581447
-0.19759011 0.20147134 0.90593219
-0.22964633 0.20389965 0.9057495
-0.19512171 0.20394184 0.9059369
-0.19753759 0.20635533 0.90569139
-0.22954048 0.20874125 0.90533203
-0.19508563 0.2088421 0.90576941
-0.22969766 0.21135367 0.90595198
-0.22717604 0.21130517 0.90574408
-0.25934327 0.21383291 0.90599334
-0.2517651 0.21368915 0.90538424
-0.19264637 0.21381305 0.90590918
-0.19004095 0.21366009 0.9052611
-0.18516147 0.21372439 0.90553355
-0.2593374 0.21629761 0.90597284
-0.18258595 0.21606591 0.90500236
-0.18027392 0.21625166 0.90578038
-0.25912395 0.2210546 0.90522718
-0.17782038 0.22120894 0.90585923
-0.22990647 0.17446993 0.90677553
-0.19531792 0.17942771 0.90684795
-0.23477751 0.18182902 0.90649593
-0.19762334 0.18421634 0.90608454
-0.23226056 0.18673396 0.90631646
-0.19530232 0.18682855 0.90677553
-0.2348952 0.18933678 0.90695035
-0.22979788 0.19168143 0.90634727
-0.23225836 0.19414356 0.90630794
-0.22989178 0.19670288 0.9067176
-0.23241208 0.19921623 0.9069078
-0.2273722 0.20654553 0.90652615
-0.23243348 0.20912381 0.90699124
-0.18296231 0.21403928 0.90686774
-0.18049324 0.21404274 0.90688235
-0.17796968 0.21645206 0.90661979
-0.17544878 0.21886149 0.90636355
-0.23511459 0.17466655 0.90779746
-0.2028964 0.17462391 0.90757579
-0.20032266 0.17453691 0.90712368
-0.19302781 0.17712262 0.90770292
-0.23506033 0.17957412 0.90758795
-0.23252906 0.18447652 0.90736425
-0.19801486 0.18953076 0.90787959
-0.23253356 0.19190021 0.90738177
-0.19786368 0.19185892 0.90718651
-0.19548362 0.19195002 0.90761727
-0.23017126 0.20189117 0.90781993
-0.2325639 0.20429374 0.90750015
-0.23250589 0.21166205 0.90727383
-0.19547011 0.21172754 0.90755457
-0.178103 0.21414107 0.90729898
-0.26214263 0.21904765 0.90713447
-0.17325875 0.2192165 0.9078337
-0.22796272 0.17487495 0.90888053
-0.1981059 0.17476268 0.90829706
-0.19321066 0.18224359 0.90856272
-0.19568092 0.1847142 0.90853328
-0.19577675 0.18976012 0.90897822
-0.23533636 0.19464606 0.90865374
-0.23291728 0.19717179 0.9088791
-0.19808115 0.19702092 0.90818357
-0.19320223 0.20452403 0.90852308
-0.23032379 0.20697738 0.90842152
-0.19576277 0.20708942 0.90891331
-0.23531638 0.20948933 0.90857655
-0.23520793 0.21186829 0.90815783
-0.17583938 0.21439654 0.90838134
-0.26253 0.21689498 0.90847498
-0.1759133 0.21696381 0.90876329
-0.17585281 0.22184178 0.90845072
-0.20577191 0.17496538 0.90935051
-0.19592668 0.1750277 0.90967441
-0.23803651 0.17747465 0.90950698
-0.1908976 0.1774424 0.90934175
-0.19349214 0.1800289 0.90988642
-0.2355193 0.1848823 0.90936011
-0.19334461 0.18732657 0.90919262
-0.23553559 0.19233191 0.90942299
-0.19583789 0.1972549 0.90926212
-0.19832632 0.19974339 0.90930766
-0.2330108 0.20220788 0.90924406
-0.19590472 0.20228091 0.90957242
-0.23558491 0.20476949 0.90961343
-0.26278552 0.21462733 0.90935922
-0.17364384 0.21474351 0.90985149
-0.23336163 0.17272611 0.91061306
-0.23823406 0.18258439 0.91026175
-0.19121376 0.18270193 0.91084778
-0.23573515 0.18753277 0.91019344
-0.19356968 0.19250701 0.91025096
-0.19854575 0.19500166 0.91031373
-0.23586078 0.20004454 0.91067857
-0.19371623 0.20258507 0.91094011
-0.23326296 0.20738897 0.91022801
-0.1935655 0.20987087 0.91023135
-0.2581149 0.21238464 0.91037118
-0.25553772 0.21230516 0.91003048
-0.23822086 0.21234736 0.91021132
-0.17130046 0.21491504 0.91057825
-0.1737209 0.21732002 0.91025525
-0.17123276 0.21979234 0.91021842
-0.23106386 0.17286408 0.91134042
-0.20139401 0.17298447 0.91197509
-0.19888546 0.17296475 0.91187119
-0.2261747 0.17540964 0.91165954
-0.22376448 0.17546833 0.91196448
-0.22112079 0.17534317 0.91131401
-0.21858862 0.17530461 0.91111362
-0.19373769 0.17529064 0.91104108
-0.18887886 0.17787559 0.91156173
-0.23858735 0.18037024 0.91161162
-0.1937333 0.18521987 0.91102046
-0.1939145 0.19036433 0.91187251
-0.1962138 0.19515027 0.91100746
-0.23618883 0.19783695 0.91194516
-0.19378278 0.19768681 0.91125309
-0.19633876 0.20024422 0.9115876
-0.23613654 0.20276369 0.91174328
-0.23599972 0.20761386 0.91121501
-0.19373514 0.20757149 0.9110291
-0.2386633 0.21025604 0.91190183
-0.26091403 0.21264349 0.91148072
-0.25336161 0.21256062 0.91112548
-0.25093564 0.21260944 0.91133475
-0.24103275 0.21263918 0.91146225
-0.19384019 0.21265338 0.9115231
-0.19142914 0.21273518 0.9118737
-0.18893497 0.21272555 0.91183245
-0.16907209 0.21523805 0.91194677
-0.16897053 0.22007741 0.91139901
-0.2387726 0.17553662 0.91231942
-0.19160564 0.17561263 0.91271448
-0.19147779 0.18046796 0.9121055
-0.23892552 0.18560275 0.91290373
-0.19153695 0.18798476 0.91238725
-0.23869619 0.19039668 0.91202748
-0.19159067 0.19301294 0.91264319
-0.23884173 0.19548789 0.91258359
-0.19410621 0.19552867 0.91277397
-0.19163939 0.19803873 0.91287529
-0.19146477 0.20283043 0.91204345
-0.1915229 0.20537885 0.91232032
-0.19159849 0.21043557 0.91268045
-0.24872825 0.21284626 0.91234988
-0.24620463 0.21281454 0.91221392
-0.2437458 0.21283875 0.91231769
-0.18654138 0.21283042 0.91228199
-0.17172085 0.21793064 0.91281289
-0.26614532 0.22031417 0.9123795
-0.2364787 0.17319109 0.91306442
-0.21175003 0.17332205 0.91375482
-0.20422716 0.17327909 0.91352838
-0.1967371 0.17326178 0.91343707
-0.21660158 0.17570738 0.91320699
-0.20923512 0.1757925 0.91364932
-0.19424757 0.20065086 0.91343874
-0.23916525 0.20571639 0.91381967
-0.18925665 0.21059801 0.91338497
-0.1868728 0.21071741 0.91390282
-0.18426503 0.21307372 0.91332483
-0.18172389 0.21301328 0.91306573
-0.17940569 0.2132161 0.91393512
-0.17692678 0.21323095 0.91399884
-0.16686754 0.21560146 0.91348654
-0.16690142 0.22062628 0.91367203
-0.22939336 0.17347941 0.91458446
-0.21442959 0.1734748 0.91456014
-0.19443697 0.17343102 0.91432935
-0.21441343 0.17595449 0.91449124
-0.21181531 0.17586699 0.91403651
-0.18948589 0.17595449 0.9144913
-0.18957664 0.18102668 0.91492933
-0.18939386 0.18334368 0.91404718
-0.19197473 0.18592173 0.91447264
-0.23928207 0.18837187 0.91426605
-0.19207694 0.19100878 0.91495949
-0.23943324 0.19347832 0.91484368
-0.19199802 0.19591632 0.91458362
-0.2393329 0.20087525 0.9144603
-0.19195183 0.200854 0.91436356
-0.18949969 0.20588258 0.91455793
-0.19200388 0.20838772 0.91461152
-0.17459141 0.21342172 0.9148165
-0.1720441 0.21335517 0.91453123
-0.16959107 0.21839219 0.91474611
-0.20723854 0.17371604 0.91583192
-0.19229186 0.17374474 0.91598326
-0.18973497 0.18866596 0.9156934
-0.18963487 0.20353474 0.91521037
-0.23967694 0.20865278 0.91577482
-0.24210441 0.21108906 0.91551471
-0.18473303 0.21111898 0.91564453
-0.26701897 0.2185422 0.91537446
-0.21245416 0.17139935 0.91679329
-0.22248957 0.1739291 0.91695523
-0.2197779 0.17376134 0.91607076
-0.2173055 0.17378105 0.91617471
-0.20990498 0.17385685 0.91657436
-0.24225576 0.18624996 0.91608703
-0.18988824 0.19381447 0.91643316
-0.23977622 0.19875005 0.91615415
-0.18991639 0.19884002 0.91656893
-0.23985606 0.20381247 0.9164592
-0.18988419 0.2087983 0.91641355
-0.25486952 0.21132733 0.91654813
-0.18244252 0.21135692 0.91667646
-0.17999996 0.21142288 0.9169625
-0.17738931 0.21129048 0.91638827
-0.26481628 0.213788 0.91638654
-0.16987219 0.21375903 0.91626239
-0.26735571 0.2163195 0.91652882
-0.16500114 0.21641941 0.91695213
-0.22771217 0.1741001 0.91785675
-0.22515018 0.17405367 0.91761196
-0.2425202 0.17895377 0.91708702
-0.24253394 0.18396384 0.91713893
-0.19018626 0.18661274 0.91787142
-0.24269241 0.19158886 0.9177382
-0.19019921 0.19162972 0.91793394
-0.19018617 0.19662052 0.917871
-0.19001868 0.20144691 0.9170627
-0.18770677 0.20915551 0.91798133
-0.25755495 0.21148093 0.91721433
-0.25250226 0.21143711 0.91702425
-0.25021234 0.2116145 0.91779363
-0.24511831 0.21153639 0.91745484
-0.1676399 0.21409784 0.91771466
-0.16758987 0.21903555 0.91744083
-0.21545325 0.1717981 0.91892612
-0.19038311 0.17428309 0.91882145
-0.24300547 0.19684568 0.91892207
-0.24783844 0.21172373 0.91826737
-0.24057449 0.1743557 0.91920424
-0.24316631 0.18193701 0.91953027
-0.24318357 0.18946993 0.91959554
-0.24319573 0.20702697 0.91964149
-0.26067781 0.21198732 0.91941059
-0.16553265 0.21962406 0.91990584
-0.24354421 0.17719899 0.92095929
-0.18825339 0.17964992 0.92065459
-0.24352518 0.20228705 0.92088729
-0.18824807 0.20724919 0.92062861
-0.24339013 0.20970125 0.9203766
-0.18573031 0.20974933 0.9205876
-0.16555403 0.21463676 0.92002469
-0.21848102 0.17221028 0.92113084
-0.20606469 0.17232563 0.9217478
-0.24366704 0.19486992 0.92142373
-0.18837626 0.19483435 0.92125553
-0.18852434 0.19750066 0.92197967
-0.18850243 0.1999906 0.92187256
-0.18833648 0.20483586 0.92106098
-0.26386568 0.21253639 0.92179197
-0.21621354 0.16989066 0.92216885
-0.21381392 0.16998133 0.92266101
-0.22120889 0.17237937 0.92203534
-0.21118148 0.1724005 0.92214835
-0.20375371 0.17249627 0.92266059
-0.18864681 0.18254016 0.92257863
-0.18858035 0.18498977 0.92225361
-0.24396899 0.20014094 0.92256558
-0.18872117 0.20273845 0.92294228
-0.16350488 0.2177555 0.92261302
-0.22401716 0.17260665 0.92325097
-0.24411593 0.20529406 0.92312127
-0.16374278 0.21555376 0.92395538
-0.21933477 0.17036255 0.92473024
-0.20908865 0.17274818 0.92400795
-0.20155357 0.17276618 0.92410427
-0.18905869 0.17789812 0.92459291
-0.18901859 0.19045919 0.92439687
-0.18898399 0.19294362 0.92422765
-0.26971954 0.2157117 0.92463237
-0.23476407 0.17310834 0.92593443
-0.22715949 0.17308339 0.92580098
-0.24716288 0.21077916 0.92510748
-0.17655085 0.21329531 0.92508346
-0.22237113 0.17075855 0.92687976
-0.23232082 0.17316848 0.92625612
-0.18947855 0.18839675 0.92664623
-0.17435543 0.21369514 0.92681754
-0.21229593 0.17078342 0.92701471
-0.2302155 0.17348462 0.9279471
-0.19971798 0.17335936 0.92727715
-0.25035149 0.21134214 0.92757845
-0.26791936 0.21376595 0.92712468
-0.24799676 0.20896009 0.92822862
-0.18738483 0.20908609 0.92878836
-0.25324771 0.21164952 0.92892754
-0.22550498 0.17121968 0.92938274
-0.25590613 0.21175404 0.92938626
-0.17234468 0.21433637 0.92959863
-0.21055205 0.1714209 0.930475
-0.18511817 0.21192126 0.93012017
-0.17010786 0.21471137 0.93122506
-0.18809329 0.20733529 0.93229991
-0.16776177 0.21495777 0.93229371
-0.27274415 0.21558201 0.93500113
-0.16580285 0.21571544 0.93557978
