# .PCD v0.7 - Point Cloud Data file format
VERSION 0.7
FIELDS x y z
SIZE 4 4 4
TYPE F F F
COUNT 1 1 1
WIDTH 1126
HEIGHT 1
VIEWPOINT 0 0 0 1 0 0 0
POINTS 1126
DATA ascii
-0.1638885 0.15352288 0.85873586
-0.16635582 0.14895463 0.85938954
-0.16640815 0.15368809 0.85965991
-0.20186329 0.13514638 0.86096382
-0.20419201 0.14452095 0.86088741
-0.16419898 0.14912331 0.86036271
-0.16183354 0.14910465 0.86025512
-0.16422068 0.16321613 0.86047637
-0.20434675 0.13993363 0.86153978
-0.20192508 0.13988288 0.86122733
-0.16908373 0.14459905 0.86135262
-0.16684945 0.15174614 0.86193967
-0.16439116 0.15164579 0.86136967
-0.16208893 0.15168859 0.86161274
-0.16205293 0.15400298 0.86142135
-0.1645028 0.15644787 0.86195463
-0.16433358 0.15863408 0.86106801
-0.16207999 0.16342266 0.86156517
-0.1620574 0.1680962 0.86144513
-0.20462716 0.13542236 0.86272198
-0.19985887 0.13537833 0.86244148
-0.204685 0.14251757 0.86296588
-0.20701496 0.14485423 0.86287272
-0.20222129 0.14479011 0.86249071
-0.17171197 0.1448355 0.86276114
-0.16694207 0.14477792 0.86241817
-0.16686596 0.14706168 0.86202496
-0.16933793 0.14951934 0.86264759
-0.16458826 0.16593224 0.86240244
-0.16231535 0.16601187 0.86281633
-0.16457674 0.16827123 0.86234206
-0.16226754 0.17301658 0.86256212
-0.22141023 0.13561934 0.86397684
-0.21890898 0.13552883 0.86340028
-0.21185826 0.13553508 0.86343998
-0.20951562 0.13554215 0.86348516
-0.20722216 0.1355816 0.86373639
-0.19769102 0.13550378 0.86324072
-0.20235126 0.13782559 0.86304504
-0.20723529 0.14029931 0.86379111
-0.20017488 0.14030159 0.86380517
-0.2024283 0.14258491 0.86337358
-0.16956723 0.14736716 0.86381567
-0.16709706 0.15667734 0.86321884
-0.16713361 0.15906511 0.86340761
-0.16244228 0.15908048 0.863491
-0.16474825 0.16138743 0.86324078
-0.16001861 0.16371641 0.86311382
-0.16253504 0.17094673 0.86398411
-0.16251776 0.17799303 0.8638922
-0.21678756 0.13567407 0.86432552
-0.21447431 0.13570112 0.86449784
-0.21215741 0.13808338 0.86465925
-0.20970213 0.13801865 0.86425388
-0.20742747 0.13807267 0.86459213
-0.2050295 0.13804491 0.86441833
-0.21673542 0.14035234 0.86411762
-0.21206987 0.14038235 0.86430246
-0.20044658 0.1452076 0.8649776
-0.20504716 0.14748268 0.86449271
-0.16507211 0.14755858 0.86493766
-0.16264726 0.14749767 0.86458063
-0.205164 0.14992453 0.86498535
-0.16027375 0.1545516 0.86448997
-0.16261154 0.15689005 0.86439079
-0.16257314 0.16156426 0.86418664
-0.16021894 0.16863267 0.86419439
-0.16500723 0.1734249 0.86459774
-0.16028787 0.17341857 0.86456621
-0.16504067 0.17817451 0.86477298
-0.16254896 0.1827378 0.86405814
-0.16018328 0.18743619 0.86400205
-0.15793459 0.1875626 0.86458474
-0.20055413 0.13820834 0.86544174
-0.21948691 0.14060605 0.86567968
-0.21480469 0.14063039 0.86582959
-0.2100274 0.14059219 0.86559439
-0.19819294 0.14056587 0.86543238
-0.2076108 0.14291234 0.86535627
-0.2077062 0.14769784 0.86575389
-0.20286267 0.14996627 0.86522621
-0.16038828 0.14994575 0.86510777
-0.20063654 0.15006526 0.86579728
-0.16037075 0.15228724 0.86501318
-0.1699671 0.15479521 0.86585271
-0.16044199 0.15943171 0.86539751
-0.1605379 0.16188735 0.86591476
-0.16760153 0.16423063 0.86582482
-0.1605399 0.16661011 0.86592555
-0.16521955 0.17128825 0.8657102
-0.16280502 0.17594868 0.86541927
-0.16290267 0.18077502 0.86593831
-0.16040342 0.18297704 0.86518937
-0.16526593 0.18313859 0.86595327
-0.16285834 0.18544537 0.86570269
-0.16042553 0.18536097 0.8653087
-0.16273721 0.18766543 0.86505878
-0.16051112 0.19253971 0.86577034
-0.16273941 0.19710015 0.86507046
-0.22453849 0.13608795 0.86696219
-0.21959405 0.13831381 0.86610222
-0.21725498 0.1383277 0.86618912
-0.21492767 0.13834944 0.86632532
-0.19854617 0.13845317 0.86697483
-0.22207519 0.14075091 0.86657161
-0.20091288 0.14318211 0.86698979
-0.21014436 0.14539206 0.86607641
-0.16543666 0.14552155 0.86684781
-0.20309497 0.14777684 0.86621702
-0.20794009 0.15022671 0.86672878
-0.16057673 0.17137016 0.86612421
-0.15830176 0.17382544 0.86659467
-0.16541365 0.18093973 0.86672729
-0.15824772 0.18321168 0.86629891
-0.15832046 0.18565838 0.86669707
-0.16067523 0.1903742 0.86665553
-0.16306444 0.19276831 0.86679822
-0.1582709 0.19268547 0.86642575
-0.16061576 0.1973882 0.86633474
-0.19621494 0.13611214 0.86711627
-0.22232962 0.13854733 0.86756444
-0.2129129 0.14330572 0.86773825
-0.21049602 0.14327063 0.86752576
-0.21275783 0.14556494 0.86710626
-0.19856237 0.14555474 0.86704552
-0.17271709 0.14804883 0.86781138
-0.17021832 0.15266035 0.86713254
-0.20349568 0.1551659 0.86792612
-0.16074845 0.15737279 0.86705047
-0.20585057 0.15988906 0.86787999
-0.16789369 0.16215271 0.86733419
-0.15846817 0.16927883 0.86750573
-0.16547659 0.17628165 0.86705703
-0.16081282 0.17871529 0.86739767
-0.15617578 0.18828343 0.86790746
-0.15847389 0.19056785 0.86753708
-0.16328415 0.19539396 0.86796612
-0.16079265 0.19524151 0.86728889
-0.2272612 0.13630357 0.86833584
-0.1941044 0.13628983 0.86824828
-0.19656853 0.14109316 0.86867881
-0.21785675 0.1434461 0.86858833
-0.21548872 0.14344585 0.86858672
-0.17288655 0.1434584 0.86866277
-0.17049025 0.14343445 0.86851776
-0.21790923 0.14584887 0.8687976
-0.21547519 0.14580432 0.86853218
-0.16344924 0.14585662 0.86884373
-0.21070643 0.14814804 0.86839288
-0.20114832 0.148082 0.86800575
-0.210628 0.15045913 0.86806971
-0.19881369 0.15047182 0.86814296
-0.20354423 0.15283652 0.86813313
-0.20593391 0.15522046 0.86823136
-0.20122685 0.15524071 0.8683446
-0.20352115 0.15991756 0.86803472
-0.16807897 0.16706529 0.86829132
-0.16811061 0.16946401 0.86845475
-0.15860642 0.17179325 0.86826253
-0.1609897 0.17654487 0.86835176
-0.16095529 0.18124011 0.86816615
-0.16583061 0.18613285 0.86891204
-0.16580592 0.1884733 0.86878264
-0.16335246 0.19074185 0.86832923
-0.16575952 0.19789056 0.86853957
-0.19205509 0.13651544 0.86968553
-0.22531259 0.14129981 0.86995107
-0.19427539 0.14114748 0.86901313
-0.19901976 0.14352116 0.86904275
-0.22048786 0.1459882 0.86962754
-0.19673142 0.14594978 0.86939865
-0.22295107 0.15079187 0.86998945
-0.21330549 0.15067901 0.86933827
-0.17314069 0.15078326 0.86993974
-0.20616715 0.15302692 0.86921471
-0.2014593 0.15305035 0.86934775
-0.21345334 0.15552607 0.86994082
-0.21102268 0.15548235 0.86969626
-0.20861195 0.1554525 0.86952925
-0.20855361 0.16014808 0.86928606
-0.20863858 0.16495433 0.86964023
-0.20626126 0.1649489 0.8696115
-0.15874712 0.17905219 0.8690328
-0.15882905 0.18151465 0.86948127
-0.2302641 0.13668108 0.87074071
-0.18986654 0.13664648 0.87052035
-0.22546117 0.13902009 0.87052476
-0.19704649 0.13906261 0.87079102
-0.18996762 0.14146756 0.87098378
-0.22060657 0.14369506 0.87009573
-0.16856676 0.14381322 0.87081128
-0.22313637 0.14617033 0.87071246
-0.19468164 0.14619012 0.87083036
-0.17563277 0.1461411 0.87053835
-0.21370007 0.14858368 0.87094641
-0.19926704 0.14844313 0.87012255
-0.1613079 0.14843383 0.87006807
-0.22068113 0.15086126 0.87038982
-0.21832803 0.15087469 0.87046731
-0.21604669 0.15093856 0.87083578
-0.19698583 0.15088433 0.87052292
-0.21132743 0.15333283 0.87095225
-0.2160612 0.15569654 0.87089431
-0.19939822 0.15566097 0.87069535
-0.2064078 0.15794976 0.8702293
-0.17083482 0.15795772 0.87027317
-0.20416924 0.15805314 0.87079889
-0.21365432 0.16041963 0.87075996
-0.21130699 0.16043954 0.87086803
-0.17096995 0.16045676 0.87096149
-0.20656648 0.16281904 0.87089831
-0.20412529 0.16276541 0.87061143
-0.20401105 0.16504614 0.87012422
-0.20181048 0.1651863 0.87086314
-0.15900493 0.16510682 0.87044412
-0.20417204 0.16992377 0.87081087
-0.15905404 0.17702493 0.87071294
-0.15671617 0.18656096 0.87091053
-0.15661611 0.19118673 0.87035447
-0.15661967 0.19356358 0.87037426
-0.1589966 0.19594154 0.87039852
-0.16372593 0.20066729 0.87031448
-0.23279524 0.13677369 0.87133074
-0.22810669 0.13918643 0.87156636
-0.19481464 0.13916388 0.87142521
-0.22807395 0.14154187 0.8714413
-0.19242088 0.14152573 0.871342
-0.19724381 0.14395389 0.87166303
-0.19490489 0.14398129 0.87182897
-0.22580746 0.1511164 0.87186182
-0.21394737 0.15350923 0.87195426
-0.20900735 0.15337245 0.87117732
-0.21862526 0.15583207 0.87165236
-0.21153726 0.15823793 0.87181699
-0.20910771 0.15819775 0.87159562
-0.20201999 0.1582289 0.87176728
-0.20197448 0.16056903 0.87157089
-0.15917428 0.16053224 0.87137121
-0.20184866 0.16284327 0.87102789
-0.2092032 0.16302383 0.87199366
-0.15923221 0.1677189 0.87168831
-0.20185864 0.16997452 0.87107098
-0.20909867 0.17006955 0.87155795
-0.20664755 0.17000753 0.87124008
-0.16878158 0.17489381 0.87192094
-0.15682797 0.18431839 0.87153184
-0.16631016 0.1937972 0.87142479
-0.15918735 0.19855201 0.87144268
-0.16638839 0.20101781 0.8718347
-0.20450677 0.13453859 0.87223846
-0.20219202 0.13458042 0.8725096
-0.19970766 0.134509 0.87204659
-0.22349849 0.14403027 0.87212557
-0.22588891 0.14641607 0.87217629
-0.22348535 0.1487761 0.87207431
-0.22111191 0.14877857 0.87208885
-0.21887945 0.14887701 0.87266582
-0.21644552 0.14883906 0.87244338
-0.19733356 0.1487736 0.87205964
-0.22356364 0.15358414 0.87237978
-0.19975023 0.15355821 0.87223244
-0.22359218 0.15598202 0.87249112
-0.1593079 0.15591258 0.87210268
-0.22130404 0.15604559 0.87284666
-0.21411192 0.15838458 0.87262493
-0.21890062 0.16078629 0.87275022
-0.21642819 0.16071689 0.87237352
-0.15941888 0.16315779 0.87271023
-0.21419288 0.16558307 0.87295491
-0.21158373 0.16540357 0.87200856
-0.20704781 0.16795735 0.87292761
-0.20224491 0.16792084 0.87273782
-0.19980058 0.17024407 0.87245232
-0.20465466 0.17270473 0.87286925
-0.16889973 0.17263788 0.87253135
-0.20223354 0.17504783 0.87268877
-0.1689447 0.17982088 0.87276369
-0.16647285 0.1916091 0.87227726
-0.18807922 0.13707326 0.87323916
-0.23111701 0.13956964 0.87396598
-0.19287622 0.13947986 0.87340385
-0.19052732 0.1395032 0.87354994
-0.18811254 0.14185899 0.87339383
-0.22853754 0.14659004 0.87321264
-0.22622627 0.14901572 0.87347889
-0.2286054 0.15139547 0.87347192
-0.19537288 0.15147354 0.87392235
-0.22135934 0.15370473 0.87306476
-0.21899652 0.15371668 0.87313259
-0.21660307 0.15370715 0.87307847
-0.19768807 0.15618496 0.87362629
-0.2001126 0.15860054 0.87381476
-0.15951984 0.15850036 0.87326288
-0.19998702 0.1608814 0.87326646
-0.21193342 0.16329604 0.87344974
-0.22380053 0.16564931 0.87330413
-0.22151989 0.16572401 0.87369794
-0.21912682 0.16571532 0.8736521
-0.19995059 0.165612 0.87310737
-0.19993787 0.16798125 0.87305182
-0.20950542 0.16802002 0.87325335
-0.20478337 0.16805173 0.87341815
-0.21185331 0.17037427 0.87311959
-0.20728575 0.17291476 0.87393075
-0.2023892 0.17280191 0.87336046
-0.20965756 0.17528829 0.87388754
-0.20720141 0.17522563 0.87357521
-0.20471342 0.17513429 0.87311983
-0.20720361 0.17999001 0.87358451
-0.16664225 0.19656429 0.87316483
-0.16197389 0.20143872 0.87366027
-0.23360598 0.13486664 0.87436527
-0.22898521 0.13495268 0.87492305
-0.22181363 0.13494241 0.87485653
-0.2074409 0.13490053 0.87458491
-0.19794038 0.13492465 0.87474132
-0.23604636 0.13728318 0.87457645
-0.18606113 0.13734064 0.87494248
-0.23361267 0.1396374 0.8743903
-0.23356421 0.14199139 0.87420893
-0.2311703 0.14198466 0.8741675
-0.22885437 0.14440972 0.87442315
-0.22642872 0.14438286 0.87426054
-0.19319673 0.14448108 0.87485522
-0.19082318 0.14448954 0.87490648
-0.17643572 0.14442542 0.87451822
-0.19301119 0.14672476 0.87401509
-0.19080248 0.14685845 0.87481153
-0.22899081 0.14926574 0.87494445
-0.19552957 0.14921093 0.87462318
-0.15968364 0.15151466 0.87415957
-0.1597425 0.15395422 0.87448186
-0.19797586 0.15402751 0.87489814
-0.21694092 0.15871406 0.87444025
-0.22418928 0.16116782 0.87482113
-0.22170924 0.16109848 0.87444478
-0.19792353 0.16113938 0.87466681
-0.19553049 0.16113211 0.87462735
-0.21447672 0.1634198 0.87411165
-0.21212949 0.16821329 0.8742578
-0.21455681 0.17063156 0.87443811
-0.20988391 0.17309287 0.87483096
-0.20034447 0.17547677 0.87482727
-0.15742157 0.17547745 0.8748306
-0.20983879 0.18020807 0.87464291
-0.2050816 0.1802178 0.87469018
-0.20264506 0.18017133 0.87446457
-0.15735804 0.18255769 0.87447757
-0.16929717 0.184964 0.87458456
-0.2314081 0.13497485 0.87506676
-0.19084832 0.13496789 0.8750217
-0.2266835 0.13500223 0.87524426
-0.22436403 0.13504213 0.875503
-0.18852735 0.13501388 0.87531978
-0.18620323 0.13505873 0.87561065
-0.18862648 0.13985933 0.87578005
-0.18616803 0.14219217 0.87544513
-0.1622327 0.14689954 0.87505621
-0.19331558 0.15172853 0.87539345
-0.22662877 0.15405124 0.87503296
-0.22666277 0.15645991 0.87516427
-0.19568904 0.15649071 0.87533653
-0.22439224 0.15892693 0.87561309
-0.21957187 0.15889306 0.87542647
-0.22681753 0.16134112 0.87576181
-0.22439529 0.16370273 0.87562501
-0.21953204 0.16363592 0.87526768
-0.20050865 0.16368762 0.87554419
-0.19803239 0.16599905 0.87514794
-0.22678238 0.16608974 0.87562609
-0.21714175 0.16601835 0.87524974
-0.21487872 0.16850041 0.87575006
-0.22442459 0.17088547 0.87573934
-0.22201234 0.17086615 0.87564027
-0.2196472 0.17088303 0.87572682
-0.20055895 0.17327745 0.87576383
-0.21245734 0.17563359 0.87560904
-0.20770243 0.17803632 0.87568754
-0.20295079 0.17805591 0.87578392
-0.16947803 0.17800201 0.8755188
-0.15749204 0.18032743 0.87522221
-0.20768695 0.18279666 0.87562227
-0.16951363 0.18281347 0.87570274
-0.2101348 0.18523727 0.87587672
-0.20771843 0.18521154 0.87575501
-0.205281 0.1851662 0.87554061
-0.16948263 0.19948617 0.87554264
-0.23648807 0.13515165 0.87621307
-0.21753955 0.13525039 0.87685317
-0.19588916 0.13515453 0.87623167
-0.19352373 0.13517062 0.87633604
-0.18394023 0.13753808 0.87620032
-0.18641689 0.13999274 0.87661541
-0.17440829 0.14233245 0.87630874
-0.23188962 0.14481673 0.87688762
-0.18870385 0.14469314 0.87613928
-0.18643126 0.14478292 0.87668294
-0.16721132 0.14469434 0.87614661
-0.23168047 0.14707421 0.87609673
-0.18871535 0.14709032 0.87619269
-0.2317186 0.15187541 0.87624091
-0.19125839 0.15198997 0.87690181
-0.22944105 0.15433852 0.87666476
-0.17452759 0.15438136 0.87690812
-0.19361742 0.15674524 0.87676024
-0.22222479 0.15908395 0.87647814
-0.19844881 0.15917651 0.87698817
-0.19357958 0.1614935 0.87658894
-0.22210641 0.16377494 0.87601125
-0.21737641 0.1638094 0.87619561
-0.17205977 0.1638688 0.8765133
-0.17214337 0.16633882 0.87693918
-0.22457686 0.16861267 0.87633353
-0.22216861 0.16859788 0.87625659
-0.21976213 0.16858411 0.87618506
-0.21755464 0.16872437 0.87691402
-0.21738306 0.17097974 0.87622237
-0.15776759 0.17108339 0.87675357
-0.21258214 0.17334859 0.87612337
-0.15769248 0.17339067 0.8763361
-0.21976644 0.17575258 0.87620223
-0.21507028 0.17581847 0.87653077
-0.19830428 0.17578211 0.87634951
-0.21029866 0.17821364 0.87655973
-0.20556155 0.17824972 0.87673718
-0.15779389 0.17828277 0.87689972
-0.21266526 0.18058367 0.87646592
-0.20061341 0.18048802 0.87600166
-0.21022113 0.1829249 0.87623656
-0.20560946 0.18307206 0.8769415
-0.15780404 0.19741777 0.87695611
-0.16963434 0.20205344 0.87632632
-0.22003797 0.13531697 0.87728477
-0.21522748 0.13529949 0.87717146
-0.18427093 0.13539267 0.87777561
-0.18187578 0.13778347 0.87776363
-0.23691198 0.14257202 0.87778372
-0.1842052 0.14251983 0.87746245
-0.17950189 0.14258365 0.87785536
-0.17224871 0.14252201 0.8774758
-0.23438098 0.14487921 0.87726599
-0.23439007 0.14727621 0.87730002
-0.1865347 0.14725429 0.87716943
-0.1936774 0.14962186 0.87703186
-0.18900824 0.15210274 0.87755251
-0.19615553 0.15447205 0.87742323
-0.22959115 0.1568307 0.87723827
-0.19139864 0.1568855 0.87754482
-0.18905716 0.15692748 0.8777796
-0.22722045 0.1592363 0.87731749
-0.22970879 0.16169594 0.87768781
-0.22722606 0.16402321 0.87733918
-0.19855924 0.16404882 0.87747622
-0.22735251 0.17129293 0.87782741
-0.21521789 0.17354822 0.87713236
-0.2224233 0.17596497 0.8772611
-0.21778992 0.17608556 0.87786233
-0.2129644 0.17844522 0.87769878
-0.20098531 0.17843035 0.87762558
-0.22006518 0.18077475 0.87739331
-0.20328447 0.18552217 0.87722379
-0.21526743 0.18793701 0.8773343
-0.16990413 0.19041216 0.87772
-0.23950548 0.13550752 0.87852025
-0.1820662 0.13553257 0.87868261
-0.23940954 0.13784699 0.87816828
-0.18438998 0.14026858 0.87834269
-0.18203105 0.14269046 0.87851298
-0.17719799 0.1426553 0.87829643
-0.17965871 0.14749818 0.87862223
-0.23238866 0.14991918 0.8787747
-0.19154863 0.14982669 0.87823254
-0.19397208 0.15463808 0.87836629
-0.18678302 0.15702714 0.87833709
-0.18451193 0.157132 0.87892359
-0.17481042 0.15702574 0.87832922
-0.19633387 0.15940027 0.87822092
-0.19161266 0.16185039 0.87852615
-0.19648713 0.16431622 0.87890649
-0.23002177 0.16670765 0.87888366
-0.19629323 0.16654746 0.87803918
-0.18449426 0.16669925 0.87883937
-0.1988869 0.16911113 0.87892419
-0.19874729 0.17138655 0.87830722
-0.18439631 0.17139935 0.87837279
-0.22035718 0.1738302 0.8785575
-0.21795055 0.17382076 0.87850982
-0.22033001 0.17859779 0.8784492
-0.19888113 0.17868918 0.87889874
-0.21788548 0.18095076 0.87824756
-0.21548606 0.18094617 0.87822533
-0.19869696 0.18091722 0.87808478
-0.22274895 0.18101215 0.87854552
-0.21311809 0.18336239 0.8783322
-0.2036013 0.18341643 0.878591
-0.21802142 0.18585457 0.8787955
-0.21552789 0.18577003 0.8783958
-0.2011795 0.18578649 0.87847358
-0.21785781 0.18810874 0.87813598
-0.21083911 0.18825364 0.87881237
-0.20599237 0.18820272 0.87857467
-0.17013395 0.18827397 0.87890726
-0.20594975 0.1929525 0.87839293
-0.23724322 0.1403753 0.87901098
-0.18459123 0.14521535 0.87930137
-0.17975093 0.14517769 0.87907332
-0.18939267 0.15001519 0.87933743
-0.17739113 0.15000091 0.87925375
-0.23496848 0.15243423 0.87946498
-0.18708773 0.15248708 0.87976998
-0.23261873 0.15486315 0.87964475
-0.19173548 0.15476535 0.87908924
-0.18941531 0.15482755 0.87944251
-0.2326356 0.15727232 0.87970853
-0.23024024 0.15967207 0.87971842
-0.19425996 0.15966325 0.87966985
-0.19192776 0.15971789 0.87997085
-0.18932743 0.16194405 0.87903452
-0.18699616 0.16200021 0.8793394
-0.18460396 0.16200437 0.87936193
-0.23019949 0.16443889 0.87956268
-0.18710428 0.16689053 0.87984782
-0.22766355 0.16913117 0.87902832
-0.23022883 0.1716534 0.87967479
-0.22293799 0.17397535 0.87929112
-0.22530484 0.17634872 0.87917423
-0.22296406 0.17878987 0.87939394
-0.21822728 0.1788369 0.87962526
-0.21580206 0.1788141 0.87951314
-0.18218693 0.18116045 0.87926531
-0.22047603 0.18350835 0.87903136
-0.21586369 0.18366137 0.87976438
-0.20149627 0.18368067 0.87985677
-0.21349549 0.18608552 0.87988758
-0.22069733 0.18848954 0.87991363
-0.21331057 0.18832071 0.87912548
-0.20868476 0.18847144 0.87982911
-0.20380864 0.18839788 0.87948573
-0.21096393 0.19315892 0.87933266
-0.20865893 0.19324405 0.87972021
-0.20389113 0.19327074 0.87984169
-0.20612219 0.19790679 0.8791284
-0.20868915 0.19806869 0.87984765
-0.20872244 0.2028977 0.87998796
-0.18252921 0.133476 0.88091719
-0.18239899 0.14057936 0.88028872
-0.24009614 0.14304355 0.88068682
-0.18251054 0.14546733 0.88082707
-0.23777823 0.14789622 0.88099325
-0.18475993 0.14774708 0.8801049
-0.1872742 0.15023857 0.88064688
-0.18716207 0.15494674 0.88011956
-0.23532212 0.15746543 0.88078862
-0.18964578 0.15981622 0.8805126
-0.1871912 0.15976974 0.88025653
-0.18492898 0.15988839 0.88091022
-0.2328614 0.16222551 0.88056237
-0.19452362 0.16468215 0.88086379
-0.19440675 0.16698286 0.88033462
-0.18974781 0.16710646 0.88098627
-0.18475081 0.16932997 0.88006151
-0.18720633 0.17178081 0.8803277
-0.18238065 0.17175594 0.88020021
-0.225648 0.17421716 0.88051325
-0.18480796 0.17658129 0.88033372
-0.18243594 0.17660803 0.88046706
-0.2255601 0.18134691 0.88017029
-0.184848 0.18141986 0.8805244
-0.22333793 0.18389188 0.88086849
-0.22084309 0.18621394 0.88049477
-0.19925754 0.18622819 0.88056213
-0.18253675 0.18631096 0.88095355
-0.2063313 0.19091117 0.88002026
-0.18241699 0.19098827 0.88037562
-0.20406148 0.1910319 0.88057679
-0.20170449 0.19107296 0.88076597
-0.2015893 0.19336328 0.88026297
-0.18000151 0.1957707 0.88029873
-0.17039257 0.19575839 0.88024336
-0.21125895 0.1982296 0.88056237
-0.2040229 0.19819537 0.88041031
-0.21115665 0.20293182 0.88013595
-0.2065341 0.20310457 0.88088518
-0.2378183 0.13351002 0.88114172
-0.18031003 0.1336109 0.88180751
-0.18031497 0.13842204 0.88183171
-0.17058827 0.14313573 0.88125432
-0.23799649 0.14562832 0.8818019
-0.18268661 0.14801097 0.88167685
-0.23546401 0.15035336 0.8813197
-0.17782547 0.15277076 0.88140661
-0.23563147 0.15526839 0.8819465
-0.18514794 0.15526956 0.88195318
-0.18738602 0.16473989 0.88117266
-0.18495546 0.1647144 0.88103634
-0.23310156 0.16719833 0.88147056
-0.1923483 0.1672796 0.881899
-0.18262462 0.1671807 0.88137764
-0.18749726 0.1696444 0.88169575
-0.18274878 0.16969851 0.8819769
-0.19712248 0.17205806 0.8817485
-0.17310432 0.17207482 0.88183445
-0.19940895 0.17435922 0.88123125
-0.1849761 0.1743401 0.88113463
-0.23068601 0.17679951 0.88142163
-0.2281771 0.17671718 0.88101119
-0.18267401 0.17924164 0.881616
-0.18028548 0.18165952 0.88168752
-0.21858101 0.18392998 0.88105106
-0.19947244 0.18402617 0.88151181
-0.19714464 0.18650004 0.88184756
-0.22349443 0.18882631 0.88148576
-0.20180137 0.18876275 0.88118905
-0.2164091 0.19133788 0.88198721
-0.19957702 0.19133502 0.88197398
-0.18030645 0.19129512 0.88179004
-0.21626367 0.19361185 0.88139451
-0.21379526 0.19355221 0.88112301
-0.17059936 0.19359362 0.88131154
-0.2089933 0.19595554 0.88112992
-0.20656961 0.1959348 0.88103664
-0.20422897 0.19599327 0.88129956
-0.18261194 0.19599703 0.88131648
-0.17783257 0.19602489 0.88144177
-0.21378422 0.19834557 0.88107753
-0.20195882 0.19852543 0.88187653
-0.17066954 0.19847988 0.88167417
-0.17308763 0.20090033 0.88174945
-0.21391222 0.20327054 0.88160503
-0.17309053 0.20330726 0.88176423
-0.20668428 0.20805804 0.8815257
-0.18526566 0.13371794 0.88251394
-0.24053171 0.14089808 0.88228452
-0.18522064 0.15292554 0.88229954
-0.23830874 0.1530398 0.88295883
-0.18291645 0.15782252 0.88278604
-0.18283515 0.16256291 0.88239372
-0.23331283 0.16494493 0.88226944
-0.18996915 0.16489717 0.88201398
-0.1924987 0.1650046 0.88258857
-0.23084997 0.1697122 0.88204807
-0.17314428 0.16971026 0.88203806
-0.19016334 0.1722858 0.88291556
-0.23098695 0.1746244 0.88257146
-0.22846593 0.17453633 0.88212639
-0.18285051 0.17460389 0.88246787
-0.22613806 0.17940623 0.88242555
-0.18525916 0.17941791 0.88248301
-0.22854786 0.18422051 0.88244271
-0.22620961 0.18427521 0.88270473
-0.19738631 0.18432194 0.88292861
-0.18280339 0.18417828 0.88224041
-0.22373831 0.18662696 0.88244766
-0.18526563 0.18664095 0.88251382
-0.18050013 0.1866882 0.88273728
-0.18290202 0.18908994 0.88271642
-0.21886089 0.19137953 0.8821792
-0.21416172 0.19147806 0.88263333
-0.21162511 0.19135988 0.8820886
-0.20924082 0.19137831 0.88217354
-0.21884443 0.19376965 0.88211286
-0.18288858 0.19388798 0.88265157
-0.18050334 0.19391026 0.88275295
-0.21174902 0.19628359 0.88260502
-0.21644929 0.19858722 0.88215101
-0.18042192 0.19863309 0.88235474
-0.1780647 0.19868658 0.88259238
-0.2092779 0.20103256 0.88232982
-0.20690246 0.20106138 0.8824563
-0.17572819 0.20117171 0.88294053
-0.20448774 0.20345759 0.88241625
-0.20217542 0.20355122 0.88282233
-0.20933926 0.20830889 0.88258851
-0.20440622 0.2081852 0.8820644
-0.21183901 0.21321504 0.88298011
-0.20928484 0.21306509 0.88235909
-0.21641824 0.21779279 0.88202447
-0.21409121 0.2178714 0.88234276
-0.18782724 0.13382909 0.88324749
-0.18061633 0.13624564 0.88330555
-0.18067789 0.14110921 0.88360655
-0.24091637 0.14834985 0.88369548
-0.23365296 0.16036853 0.88355565
-0.18312974 0.16041569 0.88381547
-0.17587061 0.16038679 0.88365614
-0.23612298 0.16281945 0.8837862
-0.17589018 0.16281359 0.88375443
-0.18308277 0.16519159 0.88358879
-0.19745433 0.16994014 0.88323283
-0.19032456 0.17002313 0.88366407
-0.18071553 0.17245655 0.88379067
-0.19761576 0.17489813 0.88395494
-0.18785267 0.17478181 0.88336706
-0.19749074 0.17719547 0.88339573
-0.18788978 0.17722474 0.88354158
-0.18060352 0.17716481 0.88324285
-0.1734647 0.17725056 0.88367033
-0.1975839 0.18209733 0.88381243
-0.18550904 0.18447742 0.88367331
-0.199883 0.18922055 0.88332617
-0.22170667 0.19176106 0.8839379
-0.19749533 0.1916479 0.88341624
-0.18555348 0.19174959 0.88388497
-0.17820494 0.19161996 0.88328749
-0.22153458 0.19401981 0.88325173
-0.19986404 0.19401777 0.88324243
-0.21435611 0.19646806 0.88343447
-0.20233347 0.1964854 0.88351244
-0.21924075 0.19893827 0.88371038
-0.214471 0.20139214 0.88390797
-0.21190168 0.20124026 0.88324136
-0.20465778 0.20121944 0.88314998
-0.21672134 0.20365208 0.88325977
-0.20959377 0.20615344 0.88366157
-0.20710248 0.20607127 0.88330936
-0.21206459 0.20862326 0.88392043
-0.20229299 0.20848525 0.88333571
-0.21438769 0.21335618 0.88356459
-0.20709576 0.21328762 0.88328069
-0.20483138 0.21343695 0.88389909
-0.21205671 0.21584351 0.88388759
-0.21197815 0.21817198 0.88356012
-0.21438272 0.22298485 0.88354415
-0.20959964 0.22302073 0.8836863
-0.19045001 0.13398048 0.88424659
-0.23634374 0.13403592 0.88461244
-0.24351352 0.13882197 0.88437951
-0.23883091 0.15096305 0.88489354
-0.18562569 0.15084969 0.88422894
-0.23863995 0.1580728 0.88418597
-0.18088681 0.16297458 0.8846283
-0.23643911 0.167862 0.88496941
-0.18091056 0.16781932 0.88474441
-0.23396118 0.17263812 0.88472116
-0.19527385 0.17254834 0.88426107
-0.19286044 0.17254561 0.88424706
-0.17371468 0.17509378 0.88494384
-0.22895864 0.17973219 0.88402879
-0.18077432 0.17974222 0.88407815
-0.22904578 0.18221122 0.88436526
-0.18818501 0.18232757 0.8849299
-0.18085945 0.18464884 0.88449448
-0.18082546 0.18943521 0.88432825
-0.22425367 0.19428968 0.8844803
-0.19767861 0.19423604 0.8842361
-0.17846163 0.19430713 0.88455975
-0.21714489 0.19681309 0.88498598
-0.17610966 0.19678445 0.88485718
-0.17370978 0.19679818 0.88491887
-0.20018391 0.19915114 0.88465601
-0.17605126 0.19913039 0.8845638
-0.20249741 0.20146513 0.88422835
-0.20007534 0.20386338 0.88417619
-0.19778164 0.20398344 0.88469696
-0.21215448 0.20630123 0.88429505
-0.20496589 0.20634428 0.88447958
-0.21462072 0.20876595 0.88452506
-0.20988815 0.21126719 0.88490266
-0.2072694 0.21105677 0.88402134
-0.20492426 0.21112327 0.88429987
-0.21708223 0.21363774 0.88473058
-0.20253022 0.21355104 0.88437158
-0.2001505 0.21358408 0.88450837
-0.21699594 0.21596348 0.88437891
-0.2145422 0.21592015 0.88420141
-0.21946891 0.21843615 0.88462996
-0.20976807 0.2183785 0.88439643
-0.20728229 0.21829945 0.8840763
-0.21470219 0.22090514 0.88486081
-0.21708292 0.22328499 0.88473338
-0.20741656 0.22326368 0.88464898
-0.20493454 0.22318679 0.88434428
-0.20985746 0.22570682 0.88477331
-0.17857499 0.13411307 0.8851217
-0.2413104 0.14617972 0.88514078
-0.23896784 0.15587653 0.88540083
-0.18110615 0.15834364 0.885701
-0.23655632 0.16070476 0.8854081
-0.2342284 0.17042094 0.8857317
-0.19556384 0.17039065 0.88557422
-0.19308729 0.17033543 0.88528723
-0.18111157 0.17042014 0.88572752
-0.18105461 0.17519371 0.88544887
-0.23426498 0.17769179 0.88587004
-0.23169035 0.17998232 0.88525909
-0.19793008 0.18000302 0.88536096
-0.18839659 0.18011767 0.88592482
-0.23168445 0.18480375 0.8852365
-0.19558008 0.18730375 0.88564783
-0.18826717 0.18723363 0.88531625
-0.17865476 0.1872761 0.88551706
-0.17387223 0.1873246 0.88574642
-0.22926989 0.1896285 0.88523054
-0.22682233 0.18959962 0.88509572
-0.19790447 0.18963188 0.88524634
-0.18583682 0.18962939 0.88523471
-0.17862886 0.18966237 0.88538867
-0.22452669 0.19211234 0.88555712
-0.17388946 0.19217244 0.88583416
-0.21971588 0.19695532 0.88562548
-0.22216251 0.19939861 0.8857553
-0.17383741 0.19935668 0.88556898
-0.21733411 0.20181346 0.88575715
-0.21976644 0.20424452 0.88582927
-0.2148892 0.20661302 0.8856315
-0.20274082 0.20653363 0.88529122
-0.19791588 0.20894825 0.88529742
-0.21730028 0.20902422 0.88561928
-0.20039019 0.209012 0.88556755
-0.2027241 0.21134251 0.8852182
-0.20994362 0.2161485 0.88513654
-0.20767276 0.21629629 0.88574171
-0.22221255 0.21876329 0.8859548
-0.20511343 0.21855623 0.88511622
-0.21717915 0.22097124 0.88512558
-0.20771188 0.22116672 0.88590854
-0.21237692 0.22340837 0.88522226
-0.18374318 0.15370142 0.88677603
-0.18365882 0.15604696 0.88636887
-0.17889929 0.15852745 0.88672906
-0.2367731 0.16568342 0.8862195
-0.19093901 0.17540504 0.88651693
-0.17894498 0.17790951 0.8869555
-0.19567935 0.18256809 0.88609731
-0.17881617 0.18261337 0.88631707
-0.17395119 0.18257867 0.88614863
-0.18853247 0.18508083 0.88656378
-0.22964294 0.18752013 0.88667095
-0.22721957 0.18751481 0.88664579
-0.19341317 0.18754347 0.88678128
-0.2320758 0.18995009 0.8867318
-0.19585685 0.19240391 0.88690114
-0.17649823 0.19238405 0.88680959
-0.22712226 0.19468196 0.88626605
-0.18618146 0.19481601 0.88687634
-0.22233313 0.19713548 0.88643557
-0.20049924 0.1970496 0.88604945
-0.18606304 0.19710806 0.88631231
-0.22484075 0.19963284 0.88679576
-0.19807658 0.19945735 0.88601619
-0.18371797 0.19960099 0.88665432
-0.20055704 0.20193827 0.88630491
-0.17641065 0.20436907 0.88636947
-0.19809003 0.20671681 0.88607639
-0.22488068 0.20933907 0.88695329
-0.22240473 0.20928425 0.88672101
-0.22002861 0.20932318 0.886886
-0.21265361 0.21161883 0.88637555
-0.21995193 0.21408358 0.88657695
-0.19825312 0.21413888 0.88680595
-0.20310786 0.21657766 0.88689399
-0.20068356 0.21657036 0.88686407
-0.20294203 0.21881638 0.88616985
-0.20069714 0.21900262 0.88692403
-0.21267292 0.22130339 0.88645601
-0.21028139 0.22132951 0.88656062
-0.20532183 0.22119342 0.88601553
-0.21983097 0.22362721 0.88608938
-0.20303948 0.22375491 0.88659537
-0.20059583 0.22372486 0.88647628
-0.19826552 0.22382204 0.88686138
-0.21498339 0.22602478 0.88601971
-0.17904915 0.13688827 0.88747185
-0.17901774 0.13928294 0.88731617
-0.17901164 0.1416968 0.88728595
-0.18144195 0.15138097 0.88734317
-0.24194427 0.15382098 0.88746583
-0.18141979 0.15378095 0.88723487
-0.17912282 0.15630542 0.88783699
-0.18145607 0.16106854 0.88741231
-0.23950091 0.16348079 0.88737595
-0.18139994 0.16585509 0.88713777
-0.17661084 0.16831836 0.88737535
-0.23456807 0.17550381 0.88701612
-0.19591634 0.17553435 0.88717049
-0.19366367 0.1756846 0.88792986
-0.19592777 0.17796302 0.88722223
-0.1911718 0.17803834 0.88759774
-0.23468889 0.18043244 0.88747305
-0.17900273 0.18038541 0.88724178
-0.17418237 0.18040261 0.88732636
-0.23226614 0.18284868 0.8874591
-0.23481108 0.18536711 0.8879351
-0.19589679 0.18518901 0.88708198
-0.1791545 0.18537942 0.88799405
-0.19117948 0.18772368 0.88763344
-0.19604428 0.19016817 0.88774985
-0.17421998 0.19011849 0.88751793
-0.22995926 0.19503918 0.88789231
-0.2250316 0.19738299 0.88754851
-0.19847661 0.19744016 0.88780564
-0.22747636 0.19982465 0.88764781
-0.22028852 0.20230937 0.88793367
-0.19845326 0.2022564 0.88770115
-0.2225398 0.2045743 0.88725954
-0.19605301 0.20469646 0.88778937
-0.21766376 0.20695576 0.88710064
-0.20074002 0.20695877 0.88711357
-0.21531157 0.2118568 0.88737226
-0.20076852 0.21182509 0.88723946
-0.19840746 0.21188641 0.88749629
-0.22254398 0.21425244 0.88727623
-0.22271977 0.21684214 0.88797706
-0.2200747 0.21662109 0.88707179
-0.20556623 0.2166207 0.88707018
-0.2251334 0.21925597 0.88795006
-0.22265668 0.22162032 0.88772553
-0.22007091 0.22145331 0.88705653
-0.20333925 0.22166497 0.88790435
-0.22254388 0.22392663 0.88727582
-0.24466798 0.1443243 0.88857216
-0.24223679 0.15158495 0.88853884
-0.18402798 0.1515187 0.88815051
-0.23984542 0.16129361 0.88865238
-0.17918059 0.16361849 0.88812339
-0.17680222 0.1660793 0.88833696
-0.23991048 0.16860631 0.88889343
-0.23745957 0.17343187 0.88878888
-0.176873 0.17825794 0.88869256
-0.19624917 0.18067734 0.88867766
-0.19370121 0.18298112 0.88810194
-0.19132547 0.18302424 0.88831127
-0.19374672 0.1854455 0.88831061
-0.17439409 0.18546517 0.88840485
-0.17678206 0.18785104 0.88823563
-0.1888703 0.19025441 0.88815242
-0.17687103 0.190368 0.88868272
-0.227689 0.19274589 0.88847756
-0.18898994 0.19279742 0.88871503
-0.17674601 0.19507483 0.88805455
-0.17431562 0.19506398 0.88800514
-0.19627929 0.20008719 0.88881403
-0.17917913 0.20235094 0.88811612
-0.22765329 0.20482302 0.88833827
-0.22529465 0.20488015 0.88858604
-0.22290081 0.20732862 0.88869888
-0.2277416 0.20974728 0.88868284
-0.19622287 0.20971794 0.88855857
-0.22296791 0.21223739 0.88896638
-0.21805632 0.21217391 0.88870054
-0.22523198 0.21450903 0.8883388
-0.22769009 0.21938726 0.8884818
-0.22764467 0.22418627 0.88830459
-0.22533698 0.22429945 0.888753
-0.19632024 0.22436164 0.88899946
-0.18192112 0.15663105 0.88968664
-0.24014221 0.16634385 0.88975203
-0.23760477 0.17111374 0.88933235
-0.17947592 0.17358764 0.88958716
-0.1770391 0.17357592 0.88952714
-0.1795484 0.17608361 0.88994646
-0.1939709 0.17838751 0.88933849
-0.23530245 0.18332957 0.88979316
-0.17712463 0.1833633 0.88995689
-0.19152981 0.1856437 0.88925999
-0.23267201 0.18801478 0.88900983
-0.23285377 0.19543722 0.88970435
-0.19640723 0.19536892 0.88939339
-0.22786358 0.19774109 0.88915879
-0.23039144 0.20025533 0.889561
-0.22315642 0.20271592 0.889718
-0.19410902 0.20519964 0.88997173
-0.22547142 0.20746495 0.88928324
-0.22055681 0.20740238 0.88901508
-0.19645232 0.20753828 0.88959759
-0.19409986 0.21004157 0.88992971
-0.22544599 0.21228908 0.88918293
-0.22064056 0.2123296 0.88935262
-0.19889766 0.21726021 0.88968903
-0.19881672 0.21959595 0.88932693
-0.20121673 0.22199348 0.88922024
-0.22796807 0.22207993 0.88956654
-0.22547188 0.22200964 0.88928503
-0.17726247 0.14223394 0.8906495
-0.24263933 0.15911497 0.89001542
-0.17956685 0.16154508 0.89003783
-0.17975715 0.16657363 0.89098114
-0.1795675 0.168824 0.89004111
-0.23798193 0.17866944 0.89074403
-0.19169088 0.18094778 0.89000779
-0.17731571 0.18113261 0.89091694
-0.23549493 0.19076179 0.89052105
-0.19428276 0.19081476 0.89076829
-0.23051411 0.19308369 0.89003462
-0.19426906 0.19322921 0.89070547
-0.19668674 0.19807476 0.89065915
-0.19422984 0.2004725 0.89052564
-0.2282941 0.20297128 0.8908388
-0.22575799 0.20287436 0.89041346
-0.1966029 0.20284383 0.89027941
-0.1821879 0.20300601 0.89099127
-0.23066379 0.20534739 0.89061254
-0.22815022 0.20769686 0.89027733
-0.19667338 0.21262707 0.8905986
-0.22820139 0.21502534 0.890477
-0.19665185 0.21503115 0.89050108
-0.2256774 0.21735951 0.89009565
-0.19672208 0.21996441 0.89081913
-0.2306717 0.22477645 0.89064306
-0.17747568 0.13511296 0.89172071
-0.24295464 0.15689255 0.89117199
-0.17745517 0.17155345 0.89161766
-0.23819552 0.17639959 0.89154351
-0.17736717 0.17632678 0.89117551
-0.19433853 0.18115439 0.89102399
-0.1774818 0.18616383 0.89175147
-0.23582414 0.18859766 0.89176595
-0.19192378 0.1908835 0.8910892
-0.2333272 0.19340445 0.89151323
-0.19198489 0.19337402 0.89137292
-0.23092908 0.1982922 0.89163685
-0.23330414 0.200675 0.89142519
-0.17988206 0.20557512 0.89160025
-0.19446339 0.20800459 0.89159644
-0.23086444 0.21038558 0.89138722
-0.22857395 0.21294512 0.89193076
-0.22847629 0.21771458 0.89154971
-0.19919851 0.22244647 0.89103478
-0.19696577 0.22266813 0.89192265
-0.17997511 0.13273296 0.89206141
-0.24334094 0.16444117 0.89258891
-0.18002331 0.1716848 0.89230037
-0.23839219 0.18140966 0.89227962
-0.19462155 0.19844447 0.89232159
-0.18978821 0.19847721 0.89246881
-0.1872915 0.20084134 0.89216405
-0.23120688 0.2033975 0.89270943
-0.19465515 0.20334423 0.89247566
-0.23355131 0.20575251 0.89236957
-0.23121208 0.20826894 0.89272952
-0.19460425 0.21301949 0.89224225
-0.19474977 0.21561272 0.89290953
-0.19705001 0.2178988 0.89230406
-0.23119892 0.22042359 0.89267874
-0.17546846 0.14274952 0.89387798
-0.23636238 0.19633718 0.89380127
-0.18990584 0.19616601 0.893022
-0.23375179 0.2107982 0.89313555
-0.23150326 0.21584073 0.89385378
-0.23140065 0.22305132 0.89345759
-0.17804934 0.13311113 0.89460307
-0.17796919 0.14036356 0.89420033
-0.24141894 0.17210466 0.89448243
-0.23899797 0.18674742 0.89454699
-0.19512098 0.19651514 0.89461142
-0.23407683 0.1989017 0.89437753
-0.19269706 0.2014076 0.89467949
-0.23421805 0.20390049 0.89491707
-0.19270781 0.20629661 0.89472938
-0.23410298 0.20867673 0.89447743
-0.2317424 0.21362467 0.89477712
-0.1926868 0.2160286 0.8946318
-0.17817058 0.13808219 0.89521223
-0.24160078 0.17467435 0.8951562
-0.23923133 0.184489 0.89542043
-0.23672178 0.19419567 0.89516038
-0.1927902 0.19662507 0.89511186
-0.23680377 0.20158565 0.89547038
-0.1903573 0.20151238 0.89514494
-0.1928781 0.21136098 0.89551997
-0.19050561 0.21632092 0.89584237
-0.23200057 0.21874614 0.89577395
-0.19535345 0.21872252 0.89567727
-0.19527362 0.22107363 0.8953113
-0.17593431 0.13579939 0.89625114
-0.19298731 0.19926853 0.89602703
-0.18568565 0.20418157 0.89615071
-0.18335222 0.20674759 0.89668536
-0.23461798 0.2140229 0.89644516
-0.19309038 0.21403734 0.89650559
-0.23465031 0.21649632 0.89656872
-0.19306058 0.21889102 0.89636725
-0.23453839 0.22127852 0.89614105
-0.1930048 0.22127043 0.89610827
-0.19544722 0.22371282 0.89610726
-0.2396812 0.19217201 0.89710426
-0.23745345 0.1996911 0.89792717
-0.19332151 0.20450692 0.89757872
-0.23724079 0.2068485 0.89712298
-0.19328225 0.20935771 0.89739645
-0.23732395 0.21181355 0.89743745
-0.19082655 0.21179327 0.89735156
-0.19094498 0.21437228 0.89790851
-0.23490627 0.22407217 0.89754671
-0.19338141 0.22414961 0.89785689
-0.17645644 0.14110298 0.89891094
-0.24014744 0.19744608 0.89884937
-0.23768944 0.20478962 0.89881951
-0.23528212 0.21952972 0.89898276
-0.19108173 0.21942443 0.89855158
-0.17660706 0.13877104 0.89967823
-0.24038415 0.19028309 0.89973533
-0.19125529 0.20491453 0.89936769
-0.18888001 0.20499729 0.89973092
-0.23777612 0.20976618 0.89914733
-0.19127272 0.2220955 0.89944971
-0.2404553 0.19524592 0.90000165
-0.2381895 0.21504125 0.90071052
-0.23802117 0.21734273 0.90007395
-0.19165257 0.20779681 0.90123588
-0.23843983 0.22264056 0.9016571
-0.24100564 0.20306942 0.90206152
-0.18954974 0.20818539 0.9029212
-0.18692575 0.20800427 0.90213567
-0.18942097 0.2203417 0.90230781
-0.18939765 0.22277381 0.90219671
-0.18224163 0.21073397 0.90329564
-0.23896098 0.22066405 0.90362787
-0.19233765 0.211005 0.90445745
-0.18989433 0.21349525 0.90456271
-0.18984903 0.21837452 0.90434688
-0.1899862 0.21606541 0.90500027
-0.19035332 0.21153963 0.90674907
-0.1856222 0.21178171 0.90778673
-0.24252337 0.21919441 0.90774226
-0.18079977 0.21440624 0.90842247
-0.24272063 0.21689633 0.90848058
-0.18838996 0.21211192 0.90920216
-0.18839392 0.21459477 0.90922129
-0.18865664 0.21985774 0.91048926
-0.18641467 0.2151709 0.91166234
-0.18390751 0.21514504 0.91155273
-0.18888719 0.21764153 0.9116019
-0.18728346 0.22116697 0.91591114
-0.18751924 0.21894564 0.91706425
-0.1860694 0.2201881 0.92226833
