# .PCD v0.7 - Point Cloud Data file format
VERSION 0.7
FIELDS x y z
SIZE 4 4 4
TYPE F F F
COUNT 1 1 1
WIDTH 1133
HEIGHT 1
VIEWPOINT 0 0 0 1 0 0 0
POINTS 1133
DATA ascii
-0.20423873 0.1351653 0.86108434
-0.20193432 0.13519394 0.86126679
-0.21637423 0.13541539 0.86267757
-0.19976297 0.13531338 0.86202765
-0.20449451 0.14003481 0.86216271
-0.2143115 0.13559811 0.86384159
-0.2072279 0.13558535 0.86376029
-0.2048251 0.13790728 0.86355656
-0.20239194 0.14020631 0.86321855
-0.21924531 0.13573706 0.86472678
-0.21223515 0.13577619 0.86497605
-0.19807534 0.13576722 0.86491889
-0.20271675 0.13807453 0.86460388
-0.20032676 0.14040802 0.86446053
-0.21002482 0.13587159 0.86558378
-0.1957898 0.13581721 0.86523741
-0.20056699 0.13821721 0.86549723
-0.21484421 0.14065626 0.86598885
-0.20765801 0.14058547 0.86555302
-0.20776121 0.1453764 0.86598319
-0.20302314 0.14536422 0.86591065
-0.21742965 0.13843891 0.86688554
-0.21493249 0.13835254 0.86634469
-0.20778692 0.13831192 0.86609036
-0.21726856 0.14069758 0.86624324
-0.21256278 0.14070864 0.86631131
-0.1983902 0.14070578 0.86629373
-0.19604047 0.14071414 0.86634517
-0.20561503 0.14316513 0.86688691
-0.2054162 0.1453874 0.86604863
-0.20079395 0.14545923 0.8664766
-0.22473414 0.13620654 0.86771762
-0.22219221 0.13609833 0.86702824
-0.19386752 0.13612351 0.86718869
-0.21284318 0.13852972 0.86745411
-0.2105995 0.13860925 0.86795217
-0.22003482 0.14095704 0.86784071
-0.21038659 0.14083263 0.86707473
-0.20823617 0.14334282 0.86796296
-0.20338079 0.14325581 0.86743611
-0.21758206 0.14562988 0.86749315
-0.21524742 0.14565021 0.86761415
-0.21281958 0.14560719 0.86735791
-0.21037547 0.14555195 0.86702889
-0.19858649 0.14557242 0.86715084
-0.20349377 0.15043283 0.86791795
-0.20109403 0.15040745 0.86777151
-0.22721404 0.13627529 0.86815566
-0.19184336 0.13636495 0.86872679
-0.2201868 0.13868716 0.86844009
-0.19881329 0.13863944 0.86814117
-0.1964516 0.13864277 0.8681621
-0.21546397 0.14342937 0.86848694
-0.21321242 0.14350732 0.86895895
-0.20121217 0.14339541 0.8682813
-0.19888794 0.14342611 0.86846721
-0.19652103 0.14579369 0.86846888
-0.20131877 0.14820749 0.86874133
-0.20843454 0.15058392 0.86878973
-0.20598947 0.15052773 0.86846554
-0.20610787 0.15535159 0.86896479
-0.20351438 0.15518016 0.86800587
-0.20357101 0.15995674 0.86824739
-0.2060274 0.1600264 0.86862552
-0.19430742 0.14117074 0.86915642
-0.21801889 0.14355287 0.8692348
-0.21091422 0.14355527 0.86924928
-0.19674608 0.14359063 0.86946344
-0.21094772 0.14831769 0.86938733
-0.20860496 0.14833693 0.8695001
-0.20612292 0.14825644 0.86902821
-0.20375592 0.14825776 0.86903602
-0.21330127 0.15067601 0.86932105
-0.21088964 0.15064602 0.86914796
-0.20144096 0.15540589 0.8692686
-0.201607 0.16027687 0.8699851
-0.20634897 0.16501904 0.86998129
-0.18996011 0.13671382 0.87094933
-0.19454665 0.13897246 0.8702265
-0.22547591 0.14140224 0.87058169
-0.22295639 0.14130943 0.8700102
-0.2206942 0.14612482 0.87044138
-0.21834052 0.14851044 0.87051713
-0.21587934 0.14844972 0.87016124
-0.21355663 0.14848395 0.8703618
-0.19935387 0.1485078 0.8705017
-0.2182733 0.15083687 0.87024909
-0.21587138 0.15081608 0.87012917
-0.19931732 0.15085299 0.87034214
-0.19708882 0.15096323 0.87097812
-0.20411527 0.1532653 0.87056869
-0.20887949 0.15565185 0.87064433
-0.19942935 0.15568528 0.87083131
-0.20413624 0.15802759 0.8706581
-0.20890194 0.16041557 0.87073797
-0.20644872 0.16272622 0.8704018
-0.20400684 0.16504273 0.87010622
-0.20166416 0.16506654 0.87023175
-0.20205946 0.13449219 0.87193757
-0.23033793 0.1367249 0.8710199
-0.22560613 0.13910946 0.87108445
-0.22329839 0.13915102 0.87134469
-0.22092658 0.14390351 0.87135792
-0.22328798 0.14626966 0.87130415
-0.19486222 0.14632571 0.87163806
-0.22103037 0.15110001 0.87176722
-0.20919304 0.15350871 0.87195128
-0.20663832 0.15337664 0.87120116
-0.20185904 0.15335403 0.87107271
-0.21385145 0.15581615 0.87156337
-0.20661785 0.15811048 0.87111485
-0.20189187 0.15812856 0.87121439
-0.20435093 0.16294533 0.87157381
-0.20188859 0.16287549 0.8712002
-0.21150088 0.1653388 0.87166709
-0.2089888 0.16523123 0.87110001
-0.20449336 0.13452977 0.8721813
-0.19747977 0.13461067 0.87270576
-0.1950255 0.13455865 0.87236845
-0.22828548 0.14167313 0.87224948
-0.1926627 0.14170359 0.872437
-0.19503407 0.14407672 0.87240678
-0.22605895 0.14652629 0.87283283
-0.2211705 0.148818 0.87231994
-0.19740248 0.14882556 0.87236422
-0.22592875 0.15119757 0.87233013
-0.22350332 0.15116538 0.8721444
-0.21399719 0.15354498 0.87215734
-0.21159714 0.15352851 0.87206382
-0.19981104 0.15360495 0.87249798
-0.2116442 0.15594029 0.87225777
-0.21653342 0.15603682 0.87279773
-0.21158856 0.16065332 0.87202847
-0.19989625 0.16080837 0.87287003
-0.20940064 0.16317768 0.87281662
-0.20461354 0.17504884 0.87269384
-0.20228307 0.1750907 0.87290251
-0.20716001 0.13471787 0.87340069
-0.20000745 0.13471091 0.87335563
-0.19278897 0.13465741 0.87300879
-0.18812531 0.13710685 0.87345314
-0.22855479 0.13945985 0.8732785
-0.1928523 0.13946258 0.87329561
-0.22634654 0.14433047 0.87394327
-0.22379006 0.14421818 0.8732633
-0.22857283 0.14661267 0.87334746
-0.19300772 0.14672211 0.87399936
-0.22380517 0.14898901 0.87332231
-0.19532564 0.15143691 0.87371099
-0.21664087 0.15373397 0.87323081
-0.19772448 0.15621373 0.87378722
-0.20950454 0.15849797 0.87324971
-0.19994907 0.15847093 0.8731007
-0.2142642 0.16087754 0.87324554
-0.21187384 0.16325015 0.87320423
-0.21443266 0.16576843 0.87393212
-0.20729589 0.16815861 0.87397355
-0.20248847 0.16812307 0.87378883
-0.20726332 0.17051412 0.87383622
-0.20476797 0.17041972 0.87335253
-0.20237084 0.17040582 0.87328124
-0.20707367 0.17511761 0.87303668
-0.22893456 0.13492283 0.87472951
-0.21944979 0.13495526 0.87493974
-0.19069773 0.13486139 0.87433124
-0.23135154 0.13971126 0.87485284
-0.23118028 0.1419908 0.87420523
-0.22645396 0.14916569 0.874358
-0.22891136 0.15159808 0.87464088
-0.19315211 0.15160023 0.87465322
-0.21933748 0.153956 0.87449199
-0.19795214 0.15400904 0.87479329
-0.21921735 0.1562541 0.87401301
-0.21458831 0.15873697 0.8745665
-0.21211442 0.15866968 0.87419569
-0.20505171 0.16827196 0.87456268
-0.20971587 0.17057155 0.87413055
-0.20019068 0.17057647 0.87415576
-0.20742841 0.17303377 0.87453228
-0.20514069 0.17311488 0.87494218
-0.20273608 0.17309809 0.87485737
-0.2003614 0.17549162 0.87490124
-0.20271091 0.18022989 0.87474877
-0.22685653 0.13510528 0.87591237
-0.18857807 0.13505019 0.87555528
-0.23379256 0.13735963 0.8750636
-0.19096135 0.13982099 0.8755399
-0.22914772 0.14459483 0.87554401
-0.23155452 0.14699425 0.87562042
-0.2220152 0.15416014 0.87565154
-0.22205794 0.15657717 0.8758201
-0.19575551 0.15654388 0.8756339
-0.21715821 0.15887302 0.87531608
-0.21959551 0.1612967 0.87552071
-0.21711768 0.1612289 0.87515271
-0.19807619 0.16126367 0.87534148
-0.21250661 0.16851234 0.87581205
-0.20993319 0.16836309 0.87503636
-0.20051663 0.16846751 0.875579
-0.21478462 0.17081274 0.87536657
-0.21245629 0.17085919 0.87560463
-0.21005417 0.17561987 0.87554067
-0.20279855 0.17792234 0.8751269
-0.20531704 0.1780377 0.87569433
-0.20531574 0.18042356 0.87568879
-0.20049754 0.18038377 0.87549567
-0.23180084 0.13520391 0.87655187
-0.22469647 0.13524222 0.87680024
-0.22220913 0.13518302 0.87641639
-0.21752067 0.13523865 0.87677705
-0.21022852 0.13516003 0.87626737
-0.18641981 0.13760538 0.87662917
-0.19112343 0.14232828 0.87628305
-0.19350812 0.14471395 0.87626529
-0.19125731 0.14720854 0.87689692
-0.19584283 0.14944999 0.87602448
-0.23182827 0.15194729 0.87665564
-0.22692469 0.1542524 0.87617552
-0.22465239 0.1543321 0.87662828
-0.19605143 0.15439007 0.87695754
-0.22693676 0.15664904 0.87622213
-0.2247162 0.15676616 0.87687725
-0.21986273 0.15910354 0.87658614
-0.19841447 0.15914899 0.87683648
-0.22472778 0.16155493 0.87692243
-0.22234914 0.16156344 0.87696862
-0.21495089 0.16378109 0.87604421
-0.20071729 0.16385794 0.87645525
-0.22453924 0.16619609 0.87618673
-0.20068075 0.16621676 0.87629569
-0.21517344 0.16873153 0.87695122
-0.2103087 0.1734432 0.87660158
-0.20083587 0.17351669 0.87697303
-0.21277025 0.17589226 0.87689865
-0.20785111 0.17816377 0.8763144
-0.20080322 0.17826869 0.87683046
-0.20796259 0.1806493 0.87678438
-0.20540273 0.185276 0.87605983
-0.20301273 0.18527418 0.87605119
-0.23452461 0.13539699 0.87780362
-0.18654633 0.13530761 0.87722409
-0.23681606 0.13773084 0.87742829
-0.18900043 0.14013661 0.87751627
-0.18890227 0.14245455 0.87706053
-0.23203751 0.14490908 0.87744689
-0.22964178 0.14969008 0.87743175
-0.19367793 0.14962228 0.87703431
-0.19138035 0.15208688 0.87746102
-0.23217632 0.15696183 0.87797177
-0.22976321 0.15694824 0.87789571
-0.2176266 0.16638905 0.87720406
-0.21997766 0.17114013 0.87704438
-0.21761121 0.17115918 0.87714201
-0.19848889 0.17594576 0.87716532
-0.2153184 0.17602131 0.87754196
-0.19854212 0.18077624 0.87740052
-0.20329316 0.18313882 0.87726128
-0.20814855 0.18559505 0.87756842
-0.20815779 0.18799551 0.87760741
-0.23710924 0.13550666 0.87851459
-0.21548492 0.13546132 0.87822062
-0.23474278 0.14270788 0.87862021
-0.18688025 0.14273617 0.87879431
-0.23464185 0.14743441 0.87824243
-0.18912651 0.14741078 0.87810165
-0.19162054 0.14988294 0.87856227
-0.23003918 0.15474087 0.87895018
-0.1939263 0.15699531 0.87815899
-0.19159234 0.15704428 0.87843293
-0.22270842 0.15943016 0.87838566
-0.22744916 0.16179042 0.87820059
-0.19648853 0.16192161 0.87891275
-0.22505057 0.16418077 0.87818199
-0.21797405 0.16425976 0.87860453
-0.19887224 0.16430742 0.8788594
-0.22742423 0.16655982 0.87810433
-0.22272219 0.16662349 0.87843996
-0.2204051 0.16668202 0.87874854
-0.1988299 0.16666755 0.8786723
-0.21314022 0.17380366 0.87842339
-0.22045895 0.17630638 0.87896323
-0.21798132 0.17624032 0.87863386
-0.21321443 0.17865473 0.87872922
-0.21076207 0.17860635 0.87849128
-0.21313758 0.18098474 0.87841249
-0.21072303 0.18096745 0.87832856
-0.20594676 0.18337239 0.87838012
-0.20113836 0.18335439 0.87829387
-0.20108178 0.18569624 0.87804687
-0.20597121 0.18818338 0.87848443
-0.20841935 0.19302219 0.87871015
-0.2060446 0.19304137 0.87879747
-0.18466321 0.13568088 0.87964416
-0.18454845 0.13799286 0.87909758
-0.23507245 0.14050996 0.87985414
-0.1870041 0.14043371 0.87937671
-0.18466204 0.14287329 0.87963861
-0.19177945 0.1452136 0.87929082
-0.18950668 0.14530872 0.87986672
-0.23260346 0.15005776 0.87958699
-0.1895258 0.15251924 0.87995547
-0.23268355 0.1549063 0.87988985
-0.19416817 0.15479439 0.87925422
-0.19189939 0.15489766 0.87984073
-0.22787018 0.15969163 0.87982619
-0.22534482 0.15960161 0.87933022
-0.1967032 0.15970013 0.87987298
-0.19416007 0.16197777 0.87921757
-0.22772685 0.16438469 0.87927276
-0.19418685 0.16679397 0.8793388
-0.22538863 0.16922215 0.87950116
-0.21815528 0.16919018 0.87933505
-0.22538993 0.17162052 0.87950623
-0.2229076 0.17155516 0.87917125
-0.19890492 0.17152248 0.87900382
-0.21571542 0.17394944 0.87916011
-0.22069442 0.17409623 0.87990206
-0.2158915 0.17888822 0.87987769
-0.19898885 0.17878596 0.87937474
-0.21578942 0.18120091 0.87946165
-0.21105483 0.1860483 0.87971157
-0.21107133 0.18846098 0.87978029
-0.20378296 0.18837415 0.87937492
-0.21109754 0.19328126 0.87988955
-0.20383459 0.19321716 0.87959772
-0.18248092 0.1382419 0.88068414
-0.18965036 0.15021929 0.88053381
-0.18972291 0.15748011 0.8808707
-0.23037088 0.16216199 0.88021755
-0.22321096 0.16458941 0.88036776
-0.22072309 0.16452372 0.88001639
-0.19448842 0.16465235 0.8807044
-0.19680806 0.16698426 0.88034201
-0.22078012 0.16936502 0.88024372
-0.21839967 0.17417894 0.88032013
-0.20884018 0.18381168 0.88048434
-0.19932297 0.18628934 0.88085127
-0.2089368 0.19110024 0.88089174
-0.20648396 0.19105242 0.88067132
-0.20888631 0.19585523 0.88067883
-0.20883697 0.198209 0.88047087
-0.24027078 0.13594052 0.88132739
-0.18273875 0.13603324 0.8819285
-0.24035041 0.13838872 0.88161951
-0.23801161 0.14082995 0.88185793
-0.18504336 0.14076562 0.88145506
-0.23787744 0.14315303 0.88136083
-0.23542379 0.14552382 0.88116914
-0.18756093 0.14566024 0.8819952
-0.18745472 0.14798056 0.88149571
-0.19474481 0.16006176 0.88186544
-0.19228999 0.16001932 0.88163167
-0.23316197 0.16243492 0.88169897
-0.19230735 0.16243717 0.88171124
-0.23080552 0.1648718 0.88187826
-0.19700825 0.16475201 0.88123751
-0.23072393 0.16721654 0.88156652
-0.19231459 0.16725028 0.88174444
-0.22339559 0.16952899 0.88109589
-0.19942595 0.16956949 0.88130641
-0.19707781 0.17201906 0.88154864
-0.22361095 0.17450051 0.88194531
-0.19945204 0.1743969 0.88142169
-0.22586714 0.17678882 0.8813684
-0.22342584 0.1767581 0.88121521
-0.19717501 0.1769122 0.88198346
-0.2187694 0.17928116 0.88181043
-0.21870534 0.18163164 0.88155222
-0.19937776 0.18393883 0.88109344
-0.21398164 0.18410537 0.88189119
-0.21149269 0.18403135 0.8815366
-0.22112894 0.18885817 0.88163447
-0.2138475 0.18879473 0.88133836
-0.20196044 0.18891154 0.88188362
-0.20426632 0.19122367 0.88146073
-0.2018494 0.19361277 0.88139874
-0.21154657 0.19609593 0.88176119
-0.20673545 0.1960921 0.88174397
-0.20657164 0.19833831 0.88104528
-0.20434758 0.19851077 0.88181138
-0.20905626 0.20322222 0.8813954
-0.20661575 0.20318487 0.88123345
-0.20672816 0.20810223 0.88171285
-0.23821247 0.13373131 0.8826021
-0.18283686 0.13370098 0.88240194
-0.18046337 0.13372454 0.88255751
-0.18288067 0.14335646 0.88261336
-0.23821916 0.14817046 0.88262689
-0.18534787 0.14821723 0.88290554
-0.23582287 0.15298851 0.88266289
-0.1877619 0.15303658 0.88294023
-0.19010769 0.1553935 0.88265717
-0.23576571 0.15776226 0.88244897
-0.18766867 0.15777171 0.88250184
-0.23089619 0.16012697 0.88222468
-0.19009094 0.16259712 0.88257939
-0.19013625 0.16744857 0.88278979
-0.22849019 0.1697453 0.88222009
-0.22862351 0.17225052 0.88273484
-0.22612821 0.17458792 0.8823871
-0.19730024 0.18183589 0.88254356
-0.22382647 0.18429412 0.88279533
-0.22143468 0.18430625 0.88285345
-0.21660009 0.18428792 0.88276559
-0.21886137 0.18897527 0.88218117
-0.21643788 0.18895884 0.88210446
-0.21167685 0.19140667 0.88230425
-0.202213 0.19155465 0.88298643
-0.2141584 0.19388098 0.88261968
-0.19970585 0.1938642 0.88254333
-0.20453542 0.19628736 0.882622
-0.2117189 0.19866119 0.88247955
-0.20450006 0.20346984 0.88246942
-0.20930225 0.20827207 0.88243246
-0.20448159 0.20826197 0.88238966
-0.18540338 0.13381734 0.88316995
-0.1807467 0.13875347 0.88394314
-0.18305199 0.14108264 0.8834402
-0.18552391 0.14594908 0.88374418
-0.23354384 0.16029364 0.88314301
-0.19028996 0.16035905 0.88350344
-0.19278714 0.16525184 0.88391101
-0.19742119 0.16991164 0.88308465
-0.19506267 0.16995399 0.88330477
-0.19504373 0.172345 0.883219
-0.19751434 0.17480837 0.88350129
-0.22871058 0.17713034 0.88307101
-0.19509755 0.17720893 0.88346279
-0.221498 0.17954454 0.88310587
-0.22154278 0.18198854 0.88328445
-0.21931082 0.1845441 0.88399279
-0.19759567 0.18451744 0.88386506
-0.22172086 0.18695408 0.88399446
-0.21928953 0.18693557 0.88390696
-0.21436709 0.18684521 0.88347971
-0.19750379 0.1868398 0.88345408
-0.22406709 0.18931015 0.88374442
-0.19981961 0.19156758 0.88304603
-0.21929041 0.19416451 0.88391048
-0.21673699 0.19403559 0.88332355
-0.20226823 0.19882958 0.88322759
-0.20949239 0.20123862 0.88323414
-0.20224385 0.20362011 0.88312113
-0.20957772 0.20613766 0.88359392
-0.20720682 0.20617509 0.88375437
-0.21186094 0.2084229 0.88307154
-0.20232294 0.20851612 0.88346654
-0.20711491 0.21330737 0.88336241
-0.2048067 0.21341124 0.88379264
-0.18806347 0.13399741 0.88435835
-0.17848715 0.13404711 0.88468629
-0.18080366 0.13638693 0.88422161
-0.23871247 0.14606643 0.88445473
-0.23618476 0.15081359 0.88401741
-0.18806471 0.15087275 0.88436419
-0.18564904 0.15327923 0.88434017
-0.23634806 0.16297466 0.88462865
-0.19285774 0.17013292 0.88423473
-0.23150547 0.17260525 0.88455266
-0.1928295 0.17251794 0.88410527
-0.22919105 0.17509028 0.88492614
-0.22679697 0.17992897 0.88499671
-0.22431649 0.17987435 0.88472807
-0.19774719 0.17983669 0.88454282
-0.22429222 0.18226625 0.88463235
-0.19534957 0.18226041 0.88460398
-0.22678636 0.18474506 0.88495535
-0.21696973 0.18701281 0.8842721
-0.20021468 0.18953454 0.88479197
-0.21948469 0.191925 0.88469356
-0.21706916 0.19192149 0.88467735
-0.2145607 0.19183478 0.8842777
-0.22176415 0.19422087 0.88416702
-0.21466027 0.19674683 0.88468802
-0.20254943 0.19669512 0.8844555
-0.21464443 0.19914366 0.88462275
-0.20010442 0.19907205 0.88430464
-0.20727019 0.20141873 0.88402468
-0.2049994 0.20155533 0.88462418
-0.21218467 0.2039198 0.88442093
-0.21231455 0.20645688 0.88496226
-0.20507459 0.2064537 0.88494861
-0.2146316 0.20877653 0.88456988
-0.21230841 0.21368751 0.88493669
-0.20252062 0.21354093 0.88432968
-0.23651658 0.13413393 0.88525939
-0.24150214 0.1438812 0.88584411
-0.18096381 0.1437449 0.88500488
-0.18354081 0.15353213 0.88579935
-0.18820286 0.15580839 0.88501382
-0.18586478 0.1582841 0.88536787
-0.23667695 0.16078672 0.88585961
-0.18832128 0.16073428 0.8855707
-0.18819997 0.1630431 0.88500023
-0.19066383 0.16550016 0.8852393
-0.23173749 0.17036468 0.88543922
-0.19074552 0.17281324 0.88561857
-0.19561678 0.17526597 0.88581401
-0.23168363 0.17756408 0.8852334
-0.19315617 0.17763822 0.88560295
-0.22694543 0.1824607 0.88557607
-0.22448857 0.18725276 0.88540673
-0.19563128 0.18735278 0.88587964
-0.19785239 0.19199438 0.8850134
-0.22198652 0.19200312 0.88505363
-0.19558749 0.19213928 0.88568133
-0.19323727 0.19220296 0.88597482
-0.2245023 0.1945051 0.88546091
-0.19789799 0.1944516 0.88521737
-0.20046662 0.19701755 0.88590533
-0.22218829 0.19942175 0.88585806
-0.21967416 0.19933152 0.88545728
-0.21728715 0.19935594 0.88556576
-0.21236204 0.20167746 0.88516021
-0.20270336 0.20167002 0.8851276
-0.20037866 0.20417243 0.88551658
-0.21730308 0.2090269 0.88563067
-0.21245304 0.21141924 0.88553953
-0.2075282 0.21132031 0.88512516
-0.20523685 0.21144533 0.88564885
-0.21497294 0.21393862 0.88597667
-0.20997901 0.21377181 0.88528579
-0.2099881 0.21860754 0.88532406
-0.20759743 0.21863133 0.88542038
-0.1908714 0.13427691 0.88620305
-0.18121888 0.14153172 0.88625228
-0.18374707 0.14887014 0.88679481
-0.18608692 0.15122451 0.88642609
-0.23678251 0.15602686 0.88625473
-0.23433623 0.16566844 0.88613939
-0.2344843 0.16819014 0.88669938
-0.18850879 0.1681433 0.88645244
-0.19085698 0.17049876 0.88613611
-0.22962238 0.18025322 0.88659155
-0.19568078 0.18015406 0.88610381
-0.19342417 0.18271941 0.8868317
-0.19337256 0.1875041 0.88659513
-0.22724977 0.1899569 0.88676363
-0.21746719 0.19710521 0.88629949
-0.21521907 0.20209458 0.88699102
-0.2199578 0.20442237 0.88660061
-0.21759413 0.20447223 0.88681686
-0.21508116 0.20438133 0.88642263
-0.21518037 0.20689297 0.88683152
-0.20292139 0.20671758 0.88607973
-0.22000284 0.20929869 0.88678217
-0.20066355 0.20929714 0.88677561
-0.2102958 0.21167752 0.88662136
-0.20296964 0.2115985 0.88629037
-0.21754186 0.21409008 0.88660383
-0.20059365 0.21405695 0.88646668
-0.20778595 0.21641417 0.88622445
-0.21265922 0.21887296 0.88639897
-0.20546928 0.2189354 0.88665181
-0.2127606 0.22381197 0.88682145
-0.21020217 0.22366184 0.88622659
-0.20795272 0.22384082 0.88693577
-0.17907166 0.13690549 0.88758349
-0.24187255 0.14168352 0.8872028
-0.183925 0.1465947 0.88765353
-0.24207824 0.14906529 0.88795727
-0.23942076 0.1513359 0.88707894
-0.18391807 0.15142821 0.88762009
-0.23949473 0.15380143 0.887353
-0.18636532 0.1562905 0.88775223
-0.23950924 0.15864861 0.88740683
-0.18629521 0.16348858 0.88741827
-0.1888306 0.17327125 0.88796574
-0.23218502 0.17553014 0.88714916
-0.19348177 0.17551957 0.88709581
-0.19124979 0.17811097 0.88795984
-0.2298836 0.18529718 0.88760012
-0.19602795 0.185313 0.88767588
-0.22740352 0.18766662 0.88736361
-0.1983268 0.19003657 0.88713551
-0.19600636 0.19013138 0.88757813
-0.19367214 0.19021504 0.88796866
-0.22496252 0.19248524 0.88727605
-0.19599432 0.1949582 0.88752359
-0.19360535 0.19498868 0.88766241
-0.22259393 0.19736671 0.88747537
-0.22006178 0.19726537 0.88701969
-0.22497679 0.19975364 0.88733238
-0.19837603 0.19975889 0.88735569
-0.21786612 0.20230748 0.88792539
-0.20071852 0.20210087 0.88701856
-0.19848585 0.20470974 0.88784695
-0.22025384 0.20711748 0.8877939
-0.21773745 0.20702583 0.88740098
-0.22270188 0.20956387 0.88790572
-0.21786284 0.21198566 0.88791203
-0.21538694 0.21193096 0.88768291
-0.22511409 0.21439676 0.88787389
-0.19847263 0.21437597 0.88778782
-0.21296334 0.21676633 0.88766658
-0.21042764 0.21664684 0.88717723
-0.20559348 0.21664941 0.88718778
-0.21535361 0.21915607 0.88754553
-0.21299149 0.22163489 0.88778389
-0.21046972 0.22152773 0.88735461
-0.20803127 0.22634391 0.88727075
-0.24457139 0.13942504 0.88822138
-0.18177207 0.14681008 0.88895768
-0.18178029 0.14923997 0.88899785
-0.18410361 0.15884683 0.88851553
-0.18898423 0.16614497 0.88868821
-0.19381483 0.18066621 0.88862288
-0.23023386 0.18315637 0.88895255
-0.22777328 0.19523999 0.88880646
-0.22522216 0.19755013 0.88830012
-0.19868149 0.19764397 0.88872206
-0.22780213 0.20011082 0.888919
-0.22288164 0.20246631 0.88862246
-0.220319 0.20233735 0.88805652
-0.22272888 0.20474811 0.88801336
-0.19872454 0.20980199 0.88891464
-0.22287214 0.21214622 0.88858455
-0.22277215 0.2144721 0.88818592
-0.21794389 0.21690692 0.8882423
-0.21552338 0.21690762 0.88824517
-0.21791181 0.21929586 0.88811159
-0.20358068 0.219505 0.88895857
-0.20832069 0.22181496 0.88850516
-0.22037862 0.22418432 0.88829684
-0.21793266 0.224159 0.88819653
-0.21566109 0.22431453 0.88881278
-0.20598885 0.224335 0.8888939
-0.17703173 0.13477497 0.88949007
-0.17939264 0.13957462 0.88917434
-0.24255745 0.14693516 0.88971508
-0.18423887 0.15653978 0.88916826
-0.24015953 0.16150485 0.88981616
-0.18666421 0.16138865 0.88917595
-0.24008183 0.16387731 0.88952833
-0.23775202 0.16636842 0.88988352
-0.18679127 0.16877471 0.88978124
-0.18913297 0.17112438 0.88938767
-0.23512085 0.17349383 0.88910645
-0.19154905 0.17596546 0.88934934
-0.23528692 0.17846693 0.88973445
-0.18916029 0.17842312 0.88951606
-0.23288013 0.18090656 0.88980508
-0.19161785 0.18330394 0.88966876
-0.19394295 0.18563332 0.88921028
-0.19162288 0.18815906 0.88969213
-0.19152869 0.19291452 0.88925481
-0.19653296 0.19791988 0.88996273
-0.2256289 0.20275837 0.88990432
-0.19892803 0.20274027 0.88982487
-0.22555915 0.20512068 0.88962924
-0.22303531 0.20745371 0.88923508
-0.20122853 0.20746242 0.88927239
-0.22557931 0.20998941 0.88970876
-0.22563145 0.21246372 0.88991439
-0.22060972 0.21229993 0.88922834
-0.20121649 0.21229774 0.88921916
-0.22795515 0.21479331 0.88951612
-0.22055788 0.21467337 0.88901943
-0.19652581 0.21489334 0.88993037
-0.20362048 0.21712428 0.88913238
-0.22068554 0.21964708 0.889534
-0.2011812 0.21953084 0.88906324
-0.19892105 0.21971118 0.88979363
-0.22300225 0.22438785 0.88910329
-0.18206489 0.15432777 0.89038968
-0.2402484 0.15671183 0.89014548
-0.18700664 0.1665411 0.89080709
-0.237841 0.16885728 0.89021653
-0.22828981 0.19325452 0.89082205
-0.22826912 0.19809303 0.89074129
-0.19423713 0.19805251 0.89055908
-0.23073427 0.20055333 0.8908847
-0.1965646 0.20037803 0.89010602
-0.22825772 0.20536682 0.89069676
-0.19659945 0.205267 0.89026386
-0.19662833 0.2101513 0.89039463
-0.22584954 0.21752529 0.89077455
-0.22327176 0.21737958 0.89017785
-0.22088808 0.2174217 0.89035034
-0.2014458 0.21739294 0.89023256
-0.22586088 0.21996446 0.89081931
-0.22325824 0.21979275 0.89012396
-0.1967551 0.22000133 0.89096862
-0.22343576 0.22239578 0.89083171
-0.22088267 0.22227016 0.89032853
-0.21843182 0.22224578 0.89023089
-0.21611525 0.22235903 0.89068449
-0.20638868 0.22234274 0.89061928
-0.20390981 0.22471404 0.89039576
-0.20161018 0.22485617 0.89095896
-0.17979963 0.14474978 0.89119172
-0.18221542 0.15202631 0.89112592
-0.18463786 0.16416574 0.89109391
-0.23562977 0.17144056 0.89103091
-0.18714269 0.17395215 0.89145517
-0.23572978 0.176373 0.89140916
-0.18954811 0.17635928 0.89133978
-0.18722937 0.17889491 0.89186811
-0.19196901 0.18121032 0.89129919
-0.23341638 0.18375418 0.89185399
-0.23324054 0.18604498 0.89118218
-0.2308951 0.1885426 0.89150566
-0.23092777 0.19099973 0.89163178
-0.19198725 0.19094661 0.89138383
-0.23088621 0.19582535 0.89147127
-0.19198726 0.19580616 0.89138389
-0.19450057 0.20075193 0.89176691
-0.22845785 0.20311686 0.89147776
-0.1943858 0.20549223 0.89124072
-0.22593647 0.20789285 0.89111745
-0.2284203 0.21037234 0.8913312
-0.19938336 0.21292861 0.89186162
-0.19934954 0.2177538 0.89171028
-0.19922155 0.2249013 0.89113778
-0.22615099 0.2251097 0.89196354
-0.17764902 0.13281186 0.89259171
-0.26773325 0.13770932 0.89279491
-0.1775344 0.13758914 0.89201576
-0.18012454 0.14257771 0.89280212
-0.24574243 0.14495809 0.89247429
-0.18256696 0.15962085 0.89284509
-0.18488756 0.16195549 0.892299
-0.187438 0.17179285 0.8928619
-0.2384606 0.174163 0.89253569
-0.23588657 0.18135323 0.89200205
-0.18986982 0.18395993 0.8928526
-0.1922016 0.18629484 0.89237905
-0.18973976 0.19356234 0.892241
-0.23113704 0.19847076 0.89243978
-0.19227703 0.20583545 0.89272928
-0.19941948 0.20810415 0.89202315
-0.19720353 0.20833188 0.89299929
-0.19456013 0.21053962 0.89203995
-0.22878194 0.21313889 0.8927424
-0.19471322 0.21557225 0.89274192
-0.22876127 0.22041939 0.89266175
-0.20441365 0.2228362 0.89259583
-0.20197426 0.22282921 0.89256787
-0.19708025 0.22523023 0.89244109
-0.18023846 0.13292718 0.89336675
-0.26563668 0.13544756 0.89392912
-0.17788464 0.14029688 0.89377552
-0.18030958 0.15003258 0.89371926
-0.24357508 0.15242241 0.89344776
-0.18263546 0.15724607 0.89318007
-0.18767647 0.17688522 0.89399791
-0.19009584 0.18174225 0.89391547
-0.23623161 0.18648852 0.89330679
-0.19010372 0.18906009 0.89395255
-0.23392875 0.1914667 0.89381176
-0.19240619 0.20110357 0.89332896
-0.19726911 0.20353121 0.8932963
-0.23150958 0.20610036 0.89387822
-0.22894277 0.20841835 0.89336997
-0.19482434 0.20839068 0.89325136
-0.19733956 0.2133473 0.89361531
-0.22885691 0.21807727 0.89303493
-0.1972391 0.21810789 0.89316034
-0.22658601 0.22310668 0.89367932
-0.19969882 0.22300518 0.8932727
-0.17559794 0.13310139 0.89453757
-0.17568529 0.13560718 0.89498252
-0.26575562 0.13794602 0.89432943
-0.26824111 0.14040877 0.89448839
-0.18040691 0.14767613 0.8942017
-0.24376832 0.15498066 0.89415658
-0.24138658 0.1672058 0.89436251
-0.18540086 0.16728315 0.89477623
-0.24154729 0.16975664 0.89495796
-0.1853672 0.16969135 0.8946138
-0.23891047 0.17205405 0.89421946
-0.2390113 0.17944226 0.89459687
-0.2342101 0.18925767 0.89488673
-0.23167512 0.19405617 0.89451736
-0.19263017 0.19889978 0.89436889
-0.23421274 0.20145652 0.89489681
-0.23166984 0.20380478 0.89449698
-0.19506732 0.20377479 0.89436543
-0.19271566 0.20874399 0.89476579
-0.23173583 0.21117966 0.89475173
-0.19266655 0.21112917 0.89453781
-0.2315563 0.21589018 0.89405859
-0.23168424 0.22088629 0.89455259
-0.19506323 0.22083545 0.89434671
-0.19746202 0.22322914 0.89416981
-0.18319528 0.13330677 0.89591789
-0.26378751 0.13819207 0.89592463
-0.27086675 0.14050598 0.89510775
-0.2638011 0.14064147 0.89597082
-0.17815027 0.14538623 0.89511019
-0.24403277 0.16002874 0.89512658
-0.23933125 0.17724067 0.89579439
-0.18547532 0.17955032 0.89513564
-0.23669255 0.18441263 0.89504981
-0.18798611 0.18449979 0.89547282
-0.23691306 0.19191055 0.89588368
-0.19049771 0.19189374 0.89580524
-0.23424587 0.19660564 0.89502341
-0.190451 0.19672914 0.8955856
-0.19293721 0.20410039 0.89579445
-0.19534278 0.21382791 0.89562839
-0.19288522 0.21625106 0.89555305
-0.19536287 0.21873307 0.89572048
-0.19291733 0.22117016 0.89570218
-0.27118227 0.13578413 0.89615041
-0.26391411 0.13581507 0.89635462
-0.27360934 0.1406616 0.89609903
-0.26628596 0.14066397 0.89611411
-0.26147977 0.14070655 0.89638543
-0.25893217 0.14064994 0.89602482
-0.17845736 0.14319271 0.89665318
-0.18331765 0.16272095 0.89651632
-0.18325298 0.16510645 0.89620006
-0.18810821 0.18217713 0.89605445
-0.19069904 0.18720774 0.896752
-0.1905542 0.19927828 0.8960709
-0.23231643 0.20926371 0.89699352
-0.19317105 0.21901628 0.89688021
-0.22973904 0.22380516 0.89647716
-0.27395284 0.13839251 0.89722407
-0.26178533 0.13842471 0.89743286
-0.17619224 0.13844509 0.89756507
-0.24708681 0.14819717 0.89735675
-0.17861614 0.14821273 0.89745092
-0.17854525 0.15059924 0.89709479
-0.18097723 0.15303329 0.89702851
-0.18097389 0.15547559 0.897012
-0.24468596 0.16290359 0.89752257
-0.24455144 0.16525918 0.8970291
-0.1859822 0.172701 0.89758188
-0.18588287 0.17505413 0.89710253
-0.23979393 0.18247634 0.8975262
-0.23741949 0.18987352 0.89779872
-0.23479247 0.19461903 0.89711189
-0.18836397 0.19465393 0.89727277
-0.23742303 0.19721822 0.89781213
-0.23485287 0.1995611 0.89734262
-0.19079465 0.20197538 0.8972016
-0.23494291 0.20697848 0.89768672
-0.19089973 0.20698056 0.89769572
-0.1908042 0.21176848 0.89724648
-0.23254021 0.21436012 0.89785755
-0.19079888 0.21665393 0.89722145
-0.23237248 0.21909679 0.89720994
-0.19091946 0.22168531 0.89778847
-0.23255841 0.22416732 0.89792782
-0.19570443 0.22400722 0.89728653
-0.27692258 0.14110522 0.89892519
-0.24258366 0.17538495 0.89879787
-0.18618646 0.17778939 0.89856774
-0.18856509 0.18996491 0.89823085
-0.23526622 0.20481299 0.89892203
-0.19115841 0.20481072 0.89891213
-0.19348566 0.21447551 0.89834088
-0.23520622 0.22190858 0.89869273
-0.19346608 0.22424775 0.89824998
-0.26229438 0.13624287 0.89917797
-0.25985759 0.13870148 0.8992272
-0.2501466 0.1387534 0.89956379
-0.25757438 0.14124472 0.89981395
-0.25022227 0.14124818 0.89983594
-0.17650546 0.14114219 0.89916068
-0.18144281 0.16078134 0.89933628
-0.18154508 0.16577761 0.89984316
-0.24274056 0.17304683 0.89937919
-0.18632215 0.18282124 0.89922261
-0.18629214 0.18524253 0.89907777
-0.24021426 0.18769781 0.89909947
-0.23795256 0.19520535 0.89981455
-0.23776704 0.20240566 0.899113
-0.23533534 0.21222626 0.89918607
-0.23546997 0.21725255 0.89970052
-0.19127162 0.21964248 0.89944452
-0.24808809 0.15616563 0.90099317
-0.18165535 0.15851533 0.90038967
-0.18177629 0.16353278 0.90098912
-0.18407518 0.16830109 0.90022105
-0.18413316 0.17080873 0.90050459
-0.24315585 0.18071015 0.90091789
-0.24069592 0.18561845 0.90090227
-0.24052326 0.19284716 0.90025604
-0.18666637 0.19543731 0.90088385
-0.18902855 0.20270404 0.90043849
-0.1914216 0.21490738 0.90014976
-0.18907174 0.22239046 0.90064424
-0.25059187 0.13408753 0.90116513
-0.17443231 0.13653599 0.9011125
-0.27764517 0.14393012 0.90127075
-0.26060694 0.14401789 0.90182036
-0.24809076 0.1537113 0.90100282
-0.24571247 0.16850053 0.90128785
-0.24579686 0.17101601 0.90159738
-0.24340028 0.17843358 0.90182352
-0.18918896 0.18813686 0.90120262
-0.18678252 0.19064455 0.90144444
-0.18919674 0.19305786 0.90123963
-0.18925552 0.19803265 0.90151966
-0.23827906 0.20038542 0.9010492
-0.18925442 0.20048888 0.90151441
-0.23583929 0.21022445 0.90111166
-0.26817191 0.13428032 0.90246081
-0.27555308 0.13674091 0.90246499
-0.26073703 0.13671145 0.9022705
-0.27815592 0.13927242 0.90292877
-0.17722711 0.14418024 0.90283692
-0.25105563 0.14664057 0.90283287
-0.17718288 0.14660464 0.90261167
-0.18445268 0.18094069 0.90206724
-0.24120636 0.19093393 0.90281278
-0.18951413 0.20568551 0.90275156
-0.19195133 0.2105812 0.90264082
-0.18955317 0.21803421 0.90293753
-0.23608062 0.22027476 0.90203375
-0.18943879 0.22036241 0.90239269
-0.27088892 0.13440785 0.90331793
-0.25872174 0.13941023 0.90382212
-0.25868285 0.14431587 0.90368623
-0.17742576 0.1517331 0.90384895
-0.17982638 0.15414274 0.90353173
-0.17978318 0.15656801 0.90331471
-0.17976323 0.16147466 0.90321445
-0.18473014 0.1738251 0.90342414
-0.18471195 0.17627032 0.90333515
-0.18480363 0.18621209 0.90378356
-0.18730089 0.19363762 0.9039461
-0.24142504 0.19849649 0.90363127
-0.23893771 0.20586511 0.90353984
-0.23892066 0.20831317 0.9034754
-0.18956786 0.2082053 0.90300757
-0.18964151 0.213211 0.90335834
-0.23635322 0.21560583 0.90307528
-0.17501199 0.13945417 0.90410709
-0.25633687 0.14191753 0.90410006
-0.17516412 0.142042 0.90489298
-0.25150168 0.14443575 0.90443695
-0.25147957 0.15181845 0.90435737
-0.2490129 0.161678 0.90435183
-0.18011715 0.16672631 0.9049927
-0.18243536 0.16905543 0.90425593
-0.18251465 0.17159483 0.9046489
-0.18500116 0.17901252 0.90474957
-0.18492253 0.18386674 0.904365
-0.18750712 0.18891738 0.90494144
-0.24165951 0.19622372 0.90450889
-0.18750371 0.19878067 0.90492499
-0.26655853 0.13470814 0.90533608
-0.27638209 0.14455444 0.9051801
-0.17777628 0.14956424 0.90563452
-0.2492315 0.15935265 0.9051457
-0.18021868 0.16435203 0.90550286
-0.18524919 0.19653909 0.90596259
-0.18770938 0.2014681 0.90591753
-0.25442398 0.13728626 0.90606415
-0.25467983 0.14236885 0.90697533
-0.26447135 0.14478773 0.90664095
-0.25959247 0.14729531 0.90686399
-0.25218734 0.14977367 0.90690267
-0.25201625 0.15708324 0.90628737
-0.18035774 0.15953854 0.90620154
-0.24705595 0.17436223 0.90621579
-0.28902045 0.18422462 0.90612525
-0.28679991 0.18932918 0.90691394
-0.28426889 0.18928994 0.906726
-0.28174946 0.18925782 0.9065721
-0.18537407 0.19172922 0.90657324
-0.2395933 0.21383896 0.90601897
-0.19026242 0.21637957 0.9063161
-0.2396764 0.21885416 0.90633321
-0.2596738 0.13745049 0.90714806
-0.2571795 0.14485656 0.90707195
-0.17573442 0.14497907 0.90783912
-0.26213115 0.1473328 0.90709484
-0.24994075 0.16475473 0.90772152
-0.25000361 0.16727109 0.90794981
-0.18309321 0.17461251 0.90751654
-0.18313646 0.17712809 0.907731
-0.2771554 0.1919702 0.9077127
-0.18801138 0.20426559 0.9073751
-0.19052613 0.21173167 0.90757227
-0.18812762 0.21429144 0.9079361
-0.18796751 0.21905462 0.90716338
-0.26508662 0.13521613 0.90875012
-0.25751251 0.14009267 0.90824658
-0.25503722 0.14009291 0.90824813
-0.25760278 0.14757158 0.90856487
-0.25249517 0.15490668 0.90800965
-0.17829561 0.15495282 0.90828019
-0.17828932 0.15742309 0.90824813
-0.25762179 0.16244321 0.90863198
-0.25748047 0.16730495 0.90813357
-0.28972659 0.17477077 0.90833908
-0.2922416 0.17974675 0.90846044
-0.28972501 0.18219773 0.90833414
-0.18319315 0.18213311 0.90801191
-0.28721064 0.18464904 0.90821278
-0.28723446 0.1871402 0.90828806
-0.18577434 0.1896667 0.90853077
-0.28226393 0.19207908 0.9082275
-0.27976215 0.19206116 0.90814275
-0.18578351 0.19462934 0.90857565
-0.18580377 0.19960436 0.90867472
-0.18581221 0.20209044 0.90871596
-0.24017653 0.22178653 0.90822446
-0.25537509 0.14771557 0.90945137
-0.2554056 0.1626091 0.90955997
-0.25296211 0.16263214 0.90968883
-0.26035419 0.16756128 0.90952492
-0.18099199 0.17001496 0.90938836
-0.18356211 0.18001986 0.90984076
-0.28022125 0.18989684 0.9096331
-0.27521899 0.19234613 0.90949023
-0.18846571 0.20971788 0.90956777
-0.24049945 0.21712671 0.90944558
-0.18855037 0.21725342 0.9099763
-0.25567055 0.13547704 0.91050357
-0.25827077 0.13802215 0.91092092
-0.25557622 0.14535093 0.91016763
-0.25555766 0.15774433 0.91010153
-0.25321177 0.16031054 0.91058666
-0.25814328 0.1652538 0.9104712
-0.1811191 0.17261495 0.91002697
-0.29299879 0.175247 0.91081423
-0.29029539 0.17759474 0.91012239
-0.29292893 0.18513379 0.91059703
-0.18367444 0.18509321 0.91039747
-0.28557906 0.18767938 0.91090506
-0.18366654 0.18756674 0.91035837
-0.2780408 0.1901013 0.91061252
-0.27309516 0.19259669 0.91067499
-0.18860196 0.20738836 0.91022533
-0.18855613 0.22222112 0.91000414
-0.25595334 0.15301929 0.91151059
-0.25844309 0.15799171 0.91152871
-0.25595397 0.1604736 0.91151291
-0.26078647 0.16287282 0.91103506
-0.25607133 0.16551875 0.91193086
-0.25587729 0.1678772 0.91123974
-0.28829288 0.17043498 0.91163498
-0.25845751 0.17042461 0.91157955
-0.25091746 0.17036651 0.91126871
-0.26100683 0.17295219 0.91180491
-0.29316044 0.18279599 0.91131669
-0.29072833 0.1877978 0.91147977
-0.26825747 0.1902044 0.91110641
-0.28582329 0.19281009 0.91168404
-0.27842855 0.1953377 0.91188246
-0.1864108 0.20522647 0.91164339
-0.18639049 0.22011244 0.91154408
-0.25864449 0.16060145 0.91223907
-0.28868815 0.16569191 0.91288495
-0.26106781 0.16553454 0.91201788
-0.29118645 0.16818602 0.91291606
-0.25365236 0.16804877 0.91217107
-0.26119113 0.17058711 0.9124487
-0.25113061 0.17299731 0.9120428
-0.29099271 0.17304774 0.91230863
-0.25868014 0.17305838 0.91236478
-0.29362428 0.17810914 0.91275859
-0.26114973 0.17802045 0.91230404
-0.18161826 0.17806552 0.91253501
-0.27117383 0.19299597 0.91256291
-0.27620021 0.19551983 0.91273272
-0.18406029 0.19791609 0.91231
-0.18905547 0.21286123 0.91241401
-0.18651795 0.21529013 0.91216743
-0.25649405 0.15085267 0.91343617
-0.25660118 0.15589754 0.91381776
-0.25392464 0.16574007 0.91315025
-0.181716 0.17567258 0.91302603
-0.26411659 0.18083593 0.91396528
-0.26661187 0.18582135 0.91397893
-0.26386639 0.18564256 0.91309953
-0.26638627 0.18815336 0.9132055
-0.26646557 0.19069938 0.91347742
-0.18425156 0.19314298 0.91325808
-0.28128123 0.19559292 0.9130739
-0.1868633 0.21817978 0.91385639
-0.25936723 0.15356949 0.91478807
-0.25670323 0.170911 0.91418117
-0.26169333 0.17589904 0.91420311
-0.28914216 0.18339853 0.91432059
-0.28424394 0.18844037 0.91459846
-0.2766858 0.19087891 0.9143374
-0.27164456 0.19083917 0.91414702
-0.18447094 0.19088058 0.91434538
-0.27431053 0.19594721 0.91472781
-0.18441464 0.19580552 0.91406637
-0.1844233 0.20079815 0.91410929
-0.18457814 0.20346054 0.91487676
-0.18697616 0.20834143 0.91440833
-0.18690185 0.21075016 0.91404492
-0.25958866 0.15120491 0.91556907
-0.28950158 0.17614032 0.91545713
-0.26443595 0.17856026 0.91507041
-0.28948587 0.18112129 0.91540748
-0.26196572 0.18107125 0.91515464
-0.28693354 0.18607478 0.91522539
-0.27454361 0.19112267 0.91550505
-0.18722551 0.21361096 0.91562772
-0.25980994 0.15632947 0.91634959
-0.26233712 0.16134317 0.91645217
-0.25484225 0.17133521 0.91645014
-0.289736 0.17378555 0.91619843
-0.25732586 0.17382349 0.91639847
-0.25982517 0.17632239 0.91640329
-0.25244796 0.17640392 0.91682714
-0.2598398 0.17883042 0.91645485
-0.25243858 0.1788964 0.91679305
-0.26473936 0.18375954 0.91612041
-0.26495665 0.18890887 0.91687238
-0.26981822 0.193809 0.91640729
-0.26267874 0.15905191 0.91764551
-0.26516744 0.17405173 0.91760176
-0.27017969 0.18906599 0.91763496
-0.18509443 0.20653042 0.91743577
-0.26534292 0.16916113 0.91820896
-0.26538032 0.17669471 0.91833842
-0.2904273 0.17920692 0.91838437
-0.262927 0.18423942 0.91851282
-0.25560918 0.17435643 0.91920811
-0.2532196 0.18195663 0.91962945
-0.26835269 0.18452702 0.91994661
-0.18559578 0.21210495 0.91992074
-0.18546672 0.21696909 0.91928107
-0.26594898 0.17205611 0.92030621
-0.26356772 0.18719821 0.92075109
-0.185747 0.20976818 0.92067033
-0.18562531 0.21966258 0.92006719
-0.26866308 0.18222992 0.92101067
-0.18587801 0.21493886 0.92131966
-0.25907609 0.17752072 0.92263144
-0.26173985 0.18265447 0.92315638
-0.18457693 0.21888548 0.92740071
