# .PCD v0.7 - Point Cloud Data file format
VERSION 0.7
FIELDS x y z
SIZE 4 4 4
TYPE F F F
COUNT 1 1 1
WIDTH 1196
HEIGHT 1
VIEWPOINT 0 0 0 1 0 0 0
POINTS 1196
DATA ascii
-0.25182828 0.14358406 0.85530651
-0.25441003 0.14372548 0.8561489
-0.24993667 0.14383717 0.85681421
-0.25460982 0.14617391 0.85682118
-0.25932688 0.14853579 0.85697305
-0.25672823 0.14838396 0.8560971
-0.25918221 0.15312226 0.85649496
-0.26150864 0.15778664 0.85646802
-0.25931934 0.15787508 0.85694808
-0.26166272 0.1648875 0.85697263
-0.25936764 0.15089546 0.8571077
-0.25719902 0.15099393 0.85766697
-0.25704223 0.15323833 0.85714418
-0.24823257 0.14420399 0.85899931
-0.25744534 0.14645833 0.85848838
-0.25265762 0.14639604 0.85812324
-0.25508729 0.14878798 0.858428
-0.25964391 0.15573385 0.85802072
-0.2620205 0.16043462 0.85814434
-0.2646175 0.17932266 0.85898131
-0.26003408 0.16065256 0.85931009
-0.26004043 0.16299888 0.85933107
-0.26242304 0.16302384 0.85946268
-0.26492593 0.16546664 0.85998255
-0.26252446 0.1677742 0.85979491
-0.26480234 0.1700756 0.85958135
-0.2625092 0.17010796 0.85974491
-0.26476264 0.18410648 0.85945249
-0.25094703 0.14207365 0.86027789
-0.25792825 0.14438856 0.86009878
-0.25095952 0.14677092 0.86032069
-0.26499835 0.17489113 0.86021763
-0.26509818 0.18199411 0.8605417
-0.26751187 0.18438669 0.86076051
-0.20679699 0.13530341 0.86196417
-0.20430638 0.13521007 0.86136955
-0.25360864 0.14225125 0.86135328
-0.24884887 0.1422147 0.86113197
-0.26291022 0.15393807 0.86105824
-0.2630668 0.15637827 0.86157113
-0.25831863 0.1563473 0.86140054
-0.26079237 0.16581938 0.86181587
-0.26547486 0.17755464 0.86176443
-0.26546532 0.18694405 0.8617335
-0.2653985 0.18924534 0.86151654
-0.20936166 0.13544257 0.86285067
-0.20216043 0.13534531 0.86223114
-0.26089859 0.14708589 0.86216688
-0.25396317 0.14950371 0.86255741
-0.256403 0.1519074 0.86285561
-0.26556 0.16821244 0.86204082
-0.26560622 0.17294212 0.8621909
-0.26803982 0.1800487 0.86245918
-0.26802012 0.18943849 0.86239582
-0.21177439 0.13548142 0.8630982
-0.20013618 0.13556617 0.86363816
-0.20478557 0.14023413 0.86338985
-0.20485443 0.14498979 0.86368018
-0.2025423 0.14501996 0.86385989
-0.26376721 0.14973034 0.86386502
-0.26367915 0.17322008 0.86357665
-0.2635116 0.17546248 0.86302787
-0.26371974 0.18030973 0.86370951
-0.26846704 0.18269037 0.8638339
-0.2683244 0.18730015 0.86337495
-0.26600519 0.19203168 0.86348593
-0.26588118 0.19429478 0.86308336
-0.26361245 0.19435665 0.8633582
-0.21441434 0.13566318 0.86425614
-0.25220525 0.14042924 0.86459118
-0.24974893 0.14037327 0.86424661
-0.20735084 0.14037752 0.86427271
-0.20261869 0.14036338 0.86418563
-0.25681347 0.14272749 0.86423701
-0.24754883 0.1428189 0.8647905
-0.26391509 0.15217036 0.86434931
-0.25916159 0.1592132 0.86421144
-0.2662029 0.16390872 0.86412776
-0.2685422 0.17567551 0.86407572
-0.26397869 0.17813015 0.86455768
-0.21703938 0.13583167 0.8653295
-0.19811451 0.13579407 0.86508995
-0.21232495 0.13819242 0.86534202
-0.20990857 0.13815452 0.86510468
-0.20761074 0.13819465 0.86535603
-0.20523255 0.13818161 0.86527437
-0.217061 0.14056318 0.86541569
-0.21471992 0.14057489 0.86548787
-0.21235546 0.1405714 0.86546642
-0.20994973 0.1405402 0.86527431
-0.20045203 0.14049582 0.86500108
-0.20527557 0.14292876 0.86545569
-0.24765795 0.14524019 0.86517173
-0.20757525 0.14524628 0.86520809
-0.20065662 0.14535975 0.86588401
-0.26425356 0.18303381 0.86545783
-0.26907614 0.19254491 0.8657937
-0.26436859 0.19727425 0.86583459
-0.21963356 0.13597743 0.86625808
-0.22451113 0.13607137 0.86685658
-0.22208501 0.13603266 0.86660993
-0.21489055 0.13832554 0.86617565
-0.20309509 0.13833223 0.86621755
-0.20791109 0.14311904 0.8666079
-0.20311314 0.14306729 0.8662945
-0.25048715 0.1478765 0.8668012
-0.2078153 0.15013656 0.86620867
-0.25743875 0.15488254 0.86634117
-0.26687315 0.1595986 0.86630344
-0.26704589 0.16206484 0.86686414
-0.26212794 0.16902977 0.86622941
-0.26926565 0.17142543 0.86640352
-0.26944703 0.17390418 0.86698717
-0.26925781 0.17850526 0.86637825
-0.26447573 0.1855488 0.86618555
-0.2646355 0.19038589 0.86670876
-0.26442111 0.19259223 0.86600655
-0.22698355 0.13613705 0.867275
-0.19625102 0.13613716 0.86727566
-0.21746548 0.13846172 0.86702836
-0.21983965 0.14083201 0.86707091
-0.19865628 0.1408945 0.8674556
-0.26252773 0.14563954 0.86755061
-0.21059553 0.14570421 0.86793584
-0.20813814 0.14800498 0.86755431
-0.21282071 0.15033655 0.8673625
-0.21046735 0.15034436 0.86740756
-0.20577736 0.15037274 0.86757129
-0.20582293 0.15513681 0.86776346
-0.20343295 0.15511805 0.8676585
-0.20340772 0.15982842 0.86755091
-0.27188492 0.1857715 0.86722517
-0.26479617 0.18813755 0.867235
-0.26963019 0.19530626 0.86757648
-0.26250204 0.19764589 0.86746573
-0.26011249 0.19999126 0.86738241
-0.25786531 0.20008215 0.86777663
-0.22966933 0.13632803 0.86849159
-0.19414873 0.13632096 0.86844659
-0.22029035 0.13875239 0.8688485
-0.2011499 0.1386189 0.86801261
-0.25557888 0.14099023 0.86804497
-0.24855843 0.14103448 0.86831748
-0.2226751 0.14113115 0.86891258
-0.2107535 0.14344588 0.8685869
-0.20135064 0.14349408 0.86887884
-0.21792556 0.14585979 0.86886269
-0.2130993 0.14579856 0.86849791
-0.20593378 0.14812039 0.86823082
-0.20373549 0.14824289 0.86894888
-0.20364468 0.15054438 0.86856157
-0.2012317 0.15051042 0.86836559
-0.20842154 0.1553106 0.86873555
-0.20596489 0.15997784 0.86836195
-0.26286834 0.17187509 0.86867613
-0.26755121 0.19788258 0.86850452
-0.19192538 0.13642325 0.86909819
-0.19914515 0.13887087 0.86959034
-0.26084653 0.14365119 0.86983013
-0.22050177 0.14362679 0.86968237
-0.21799737 0.14353871 0.86914903
-0.21574962 0.14361952 0.86963838
-0.21330518 0.14356974 0.86933696
-0.22276323 0.14592589 0.86925644
-0.22041985 0.14594316 0.86935931
-0.21574281 0.14598541 0.86961091
-0.19910076 0.14594941 0.86939651
-0.21333674 0.14833105 0.86946559
-0.21101452 0.14836466 0.86966264
-0.25371921 0.15075578 0.86978126
-0.21578948 0.15075888 0.86979908
-0.19922704 0.15078466 0.86994785
-0.20869061 0.15314002 0.86985713
-0.20156807 0.15550396 0.86981708
-0.20852534 0.16012639 0.86916822
-0.2607438 0.16255531 0.86948758
-0.20395099 0.16499753 0.86986798
-0.2632508 0.19583832 0.86993998
-0.26063132 0.1980211 0.86911249
-0.263037 0.20041806 0.86923349
-0.23253804 0.13662259 0.87036812
-0.18983336 0.13662259 0.87036818
-0.22788735 0.14142606 0.87072831
-0.19688809 0.14132255 0.87009102
-0.24671596 0.14370684 0.87016714
-0.23974602 0.14616771 0.87069684
-0.23735538 0.14615709 0.87063354
-0.22554749 0.14619477 0.87085807
-0.20162109 0.14843005 0.8700459
-0.22552326 0.1509262 0.87076449
-0.22320309 0.15096232 0.87097287
-0.21841572 0.15093529 0.87081695
-0.20638371 0.15318766 0.87012768
-0.21118881 0.15560476 0.87038094
-0.20402494 0.15794143 0.87018341
-0.20655303 0.15806089 0.87084156
-0.20181166 0.16043958 0.87086827
-0.20171785 0.1651105 0.87046349
-0.27053148 0.16748574 0.87047648
-0.27054366 0.16986619 0.87051576
-0.27276552 0.18163005 0.87003398
-0.27293921 0.18886495 0.870588
-0.2727797 0.19112627 0.87007922
-0.25624394 0.20066483 0.87030381
-0.23050526 0.13920021 0.87165266
-0.22812702 0.13919882 0.87164402
-0.22328678 0.13914379 0.87129945
-0.19730537 0.1392453 0.87193507
-0.23051184 0.14158024 0.87167758
-0.22566886 0.14152324 0.87132668
-0.19487868 0.14158578 0.87171173
-0.22329845 0.14390136 0.87134492
-0.19969234 0.14400618 0.87197965
-0.24708605 0.1462979 0.87147242
-0.21629061 0.14873253 0.87181896
-0.22104786 0.15111196 0.87183625
-0.21387023 0.15345389 0.87163991
-0.21135999 0.15335646 0.87108648
-0.20198673 0.15345104 0.87162375
-0.21617137 0.15577593 0.87133837
-0.21380258 0.15578054 0.87136418
-0.19961742 0.1558321 0.87165254
-0.26845694 0.15817034 0.87144464
-0.20916401 0.15824035 0.87183028
-0.21137954 0.16049461 0.871167
-0.20677838 0.16298606 0.87179166
-0.20435861 0.16295145 0.87160653
-0.20203222 0.16299136 0.87182003
-0.26127234 0.1652597 0.87125009
-0.20661344 0.16523051 0.87109625
-0.27307042 0.18420729 0.87100649
-0.25896913 0.19856308 0.87149125
-0.20454697 0.13456504 0.87240994
-0.19275923 0.13463664 0.87287414
-0.23555259 0.136996 0.872747
-0.22604278 0.13937871 0.87277043
-0.19502375 0.13931327 0.87236059
-0.23310766 0.14171384 0.87250012
-0.19278558 0.14179397 0.87299341
-0.22832461 0.14645346 0.87239903
-0.19740681 0.14645083 0.87238336
-0.22596474 0.14884344 0.87246907
-0.21890014 0.14889108 0.87274832
-0.19971919 0.14877994 0.8720969
-0.1973552 0.15116726 0.87215525
-0.21634412 0.15352339 0.87203467
-0.20447293 0.15353386 0.87209415
-0.19989745 0.15367138 0.87287533
-0.21178553 0.15842365 0.87284023
-0.20214044 0.15832324 0.87228703
-0.2140511 0.16071755 0.87237704
-0.19976863 0.16070572 0.87231284
-0.20937145 0.16315494 0.87269497
-0.20926082 0.1654463 0.87223381
-0.20446067 0.17016397 0.87204182
-0.20219743 0.1702598 0.87253296
-0.25697726 0.19885999 0.87279439
-0.2071335 0.13470063 0.87328893
-0.2023495 0.13468523 0.87318915
-0.20012562 0.1347905 0.87387162
-0.19776995 0.13480848 0.87398815
-0.19537997 0.13480322 0.87395406
-0.18803683 0.13704236 0.87304235
-0.23326005 0.13942663 0.87307048
-0.19285879 0.13946727 0.87332493
-0.24768059 0.14188752 0.87356937
-0.24536599 0.1443079 0.8738066
-0.22632448 0.14431641 0.87385809
-0.24285698 0.14661299 0.87334931
-0.23566745 0.14658332 0.87317258
-0.22381547 0.14899586 0.87336248
-0.22142246 0.14898755 0.87331372
-0.21906765 0.15614739 0.87341619
-0.21439384 0.15859312 0.87377387
-0.20007128 0.15856779 0.87363434
-0.21195555 0.16331309 0.87354094
-0.20487633 0.16812804 0.8738147
-0.20253389 0.16816078 0.87398487
-0.20728707 0.17053366 0.87393636
-0.20483823 0.17524107 0.87365216
-0.27393717 0.1776467 0.87377113
-0.25012204 0.19670273 0.87377983
-0.25491741 0.19910936 0.87388885
-0.26673126 0.20141852 0.87357259
-0.23119558 0.13485089 0.87426311
-0.2289726 0.13494524 0.87487489
-0.20988849 0.13494141 0.87485003
-0.19068412 0.13485178 0.87426889
-0.1907759 0.1396852 0.87468964
-0.23592047 0.14197533 0.87411004
-0.23841423 0.1420415 0.87451744
-0.1906963 0.1420102 0.87432468
-0.2432337 0.1444561 0.874704
-0.24070509 0.14436956 0.87417996
-0.23834962 0.14438616 0.87428045
-0.22881283 0.1443835 0.87426442
-0.19785351 0.14439887 0.8743574
-0.24563229 0.14684895 0.87475491
-0.19541346 0.14673966 0.87410384
-0.19307202 0.146771 0.87429053
-0.19783531 0.14915188 0.874277
-0.22874761 0.15148965 0.87401521
-0.19550775 0.1515781 0.87452561
-0.21922953 0.15388022 0.87406158
-0.22413759 0.1563625 0.87461942
-0.22179274 0.15639016 0.8747741
-0.19781214 0.15628299 0.87417459
-0.21703872 0.15878561 0.87483448
-0.22183003 0.16118623 0.87492114
-0.21939452 0.16114907 0.87471938
-0.21699923 0.16114095 0.87467527
-0.21224099 0.16591738 0.87471735
-0.21468449 0.17073309 0.87495846
-0.20974921 0.17059866 0.87426949
-0.2051449 0.17311843 0.87496012
-0.26469842 0.17545603 0.87472385
-0.20734406 0.17534627 0.87417662
-0.20271938 0.17546836 0.8747853
-0.20510156 0.18023534 0.87477529
-0.25281543 0.19694546 0.87485808
-0.25279346 0.19931287 0.87478209
-0.255059 0.20160335 0.87437427
-0.23382664 0.13499403 0.87519115
-0.22662139 0.13496524 0.87500447
-0.23632841 0.13506041 0.8756215
-0.18857218 0.13504598 0.87552792
-0.23637493 0.13986155 0.87579387
-0.24101418 0.14216901 0.87530249
-0.23396175 0.14462008 0.8756969
-0.23159805 0.14463463 0.87578505
-0.19568692 0.144559 0.87532705
-0.19343625 0.1446602 0.87593991
-0.23387033 0.14694965 0.87535471
-0.23146869 0.14693977 0.87529588
-0.22901939 0.14928438 0.8750537
-0.22663462 0.15405522 0.87505555
-0.22425678 0.15406032 0.87508452
-0.22194074 0.15410843 0.87535787
-0.19801322 0.15405656 0.87506318
-0.19562219 0.15643725 0.87503749
-0.19821833 0.15899165 0.87596965
-0.22448193 0.16137819 0.87596309
-0.19807774 0.16126494 0.87534833
-0.21485937 0.16371135 0.87567115
-0.20047228 0.16365793 0.8753854
-0.21954472 0.16603135 0.87531823
-0.20045486 0.16602965 0.87530929
-0.2100333 0.16844338 0.87545365
-0.20757239 0.16838288 0.87513924
-0.20058849 0.16852789 0.87589282
-0.21971077 0.17093249 0.87598026
-0.21728814 0.17090507 0.87583977
-0.21254323 0.17092912 0.87596297
-0.20041533 0.17076787 0.87513667
-0.20769088 0.17325272 0.87563884
-0.20296934 0.17329726 0.87586397
-0.21009442 0.17565352 0.8757084
-0.2745181 0.18041025 0.87562418
-0.20754579 0.18028723 0.87502712
-0.202842 0.18034643 0.87531441
-0.20056199 0.18044175 0.87577707
-0.2244931 0.13511983 0.87600666
-0.23908587 0.13766062 0.87698108
-0.186333 0.13754131 0.87622094
-0.24614371 0.1423759 0.87657624
-0.24377176 0.14238609 0.87663901
-0.18880324 0.14237988 0.87660074
-0.23645756 0.14468665 0.8761
-0.19122136 0.14718087 0.87673205
-0.23889135 0.14949146 0.87626755
-0.19594029 0.14952436 0.87646037
-0.19366176 0.14960977 0.87696105
-0.23901778 0.15196042 0.87673134
-0.23668534 0.15199727 0.87694395
-0.23188967 0.15198754 0.8768878
-0.19346637 0.15184687 0.87607622
-0.22952504 0.15439503 0.87698573
-0.19595207 0.15431182 0.87651312
-0.22692496 0.1566409 0.8761766
-0.2199446 0.15916279 0.87691253
-0.2221728 0.16621247 0.8762731
-0.2173592 0.1661846 0.87612623
-0.21502264 0.16622451 0.87633657
-0.21757075 0.16873686 0.87697893
-0.21274419 0.16870074 0.87679124
-0.21038899 0.1735094 0.8769362
-0.20078243 0.17586038 0.87673968
-0.26513705 0.1781351 0.87617338
-0.20782158 0.17813845 0.87618989
-0.2054223 0.17812897 0.87614328
-0.21022421 0.18053906 0.87624937
-0.20306404 0.18293242 0.87627256
-0.20557974 0.18304561 0.87681478
-0.20545965 0.18532735 0.8763026
-0.20313205 0.18538307 0.87656605
-0.24601185 0.19245028 0.87610662
-0.24842577 0.19485864 0.87619758
-0.26276541 0.19725406 0.87622893
-0.25574663 0.19736721 0.87673151
-0.24850659 0.19731119 0.87648267
-0.22251219 0.13536739 0.8776117
-0.220154 0.13538833 0.87774742
-0.2152531 0.1353156 0.87727588
-0.2128499 0.13530804 0.87722689
-0.1888954 0.14005874 0.87702864
-0.1914952 0.14499837 0.87798756
-0.25129384 0.14976542 0.87787336
-0.24173182 0.14977145 0.87790877
-0.23690662 0.14974673 0.87776381
-0.23208562 0.14972368 0.87762874
-0.19136715 0.15207639 0.87740046
-0.23674522 0.15681775 0.87716585
-0.23455517 0.15695222 0.877918
-0.22963028 0.15685743 0.87738782
-0.22247805 0.15926525 0.87747705
-0.19611204 0.15922016 0.87722862
-0.2368093 0.16164352 0.87740326
-0.19609921 0.16160078 0.87717128
-0.22000937 0.16399172 0.8771708
-0.21762078 0.16399355 0.87718058
-0.22244485 0.16402449 0.8773461
-0.22009577 0.16884005 0.87751526
-0.21531102 0.16883941 0.87751192
-0.22260083 0.17131907 0.87796134
-0.21526815 0.17358875 0.87733722
-0.2153445 0.17604265 0.87764835
-0.20328258 0.17834699 0.87721562
-0.20824154 0.18328479 0.87796044
-0.2008453 0.18308724 0.87701422
-0.20816064 0.18560584 0.87761939
-0.20084538 0.18547791 0.87701452
-0.20822862 0.18805946 0.87790596
-0.24886127 0.19280767 0.87773359
-0.265591 0.19518687 0.87767351
-0.2512778 0.19521885 0.87781733
-0.25117639 0.19992372 0.8774631
-0.2395993 0.13556062 0.87886441
-0.21785854 0.13544872 0.87813896
-0.18678902 0.13548364 0.87836534
-0.25386831 0.14029396 0.87850153
-0.23950806 0.14029846 0.87852973
-0.18681361 0.14268525 0.87848091
-0.19166815 0.14992018 0.87878054
-0.2346891 0.15225297 0.87841928
-0.19389574 0.15697056 0.87802058
-0.23954801 0.15708777 0.87867624
-0.23243795 0.15713872 0.87896115
-0.22510001 0.15942822 0.87837493
-0.23940618 0.16178219 0.87815601
-0.23467134 0.16181846 0.87835282
-0.19884293 0.1642832 0.87872988
-0.23948486 0.16662437 0.87844461
-0.19882531 0.16666371 0.87865204
-0.21802594 0.17388089 0.87881368
-0.21320549 0.17385688 0.87869239
-0.20124967 0.17387421 0.87877995
-0.22031678 0.1761927 0.87839645
-0.21325777 0.17629528 0.87890786
-0.19880785 0.17622848 0.87857485
-0.21067442 0.17853208 0.87812597
-0.20118311 0.17860594 0.87848932
-0.19878514 0.18099752 0.87847453
-0.21075194 0.18578129 0.87844902
-0.24670278 0.18820111 0.87856716
-0.21075228 0.18817611 0.87845045
-0.20602597 0.18823342 0.87871802
-0.24656369 0.19048849 0.87807184
-0.20836328 0.19297025 0.8784737
-0.20600402 0.19300334 0.87862438
-0.20365371 0.19304569 0.87881714
-0.24671291 0.19539364 0.87860328
-0.20368928 0.19787127 0.87897062
-0.26117 0.20504206 0.87889773
-0.18459296 0.13802613 0.87930954
-0.18703201 0.14045468 0.87950802
-0.18948774 0.14769234 0.8797788
-0.234944 0.15002131 0.87937337
-0.23253775 0.15480924 0.8793385
-0.19419856 0.15481864 0.87939185
-0.1918892 0.15728761 0.87979406
-0.22786252 0.15968625 0.87979656
-0.22765763 0.1619387 0.87900549
-0.23261596 0.16205454 0.87963426
-0.23019817 0.16204043 0.87955767
-0.19423974 0.16204423 0.87957829
-0.22543524 0.1644614 0.87968308
-0.22539489 0.16682941 0.8795256
-0.22292759 0.16917384 0.87925005
-0.22050773 0.17394896 0.87915772
-0.2182643 0.1764691 0.87977445
-0.2158052 0.18121415 0.87952596
-0.21329477 0.18111822 0.87906033
-0.21104957 0.18364577 0.87968963
-0.1990612 0.18364678 0.87969446
-0.24470155 0.18850432 0.87998265
-0.20872454 0.19090609 0.87999684
-0.20630911 0.19089064 0.87992561
-0.24468707 0.19329026 0.87993056
-0.2110676 0.19325386 0.8797648
-0.25887212 0.19792968 0.87923008
-0.20620349 0.19798484 0.87947512
-0.25421056 0.20282805 0.87968588
-0.1847606 0.13575245 0.88010812
-0.18964244 0.14541282 0.8804971
-0.24240959 0.15259114 0.88037026
-0.18963067 0.15260364 0.88044244
-0.23755008 0.15495174 0.88014793
-0.23513684 0.15494244 0.88009512
-0.19202541 0.15499938 0.88041854
-0.23757757 0.15976852 0.8802498
-0.23044242 0.15981227 0.8804909
-0.19450592 0.15986541 0.88078362
-0.24249062 0.16224433 0.88066453
-0.19194056 0.16212736 0.88002956
-0.23993441 0.16453815 0.88009357
-0.23774415 0.16468273 0.88086694
-0.1968776 0.16464275 0.88065308
-0.24233361 0.16693728 0.88009429
-0.23756532 0.16695815 0.88020438
-0.23535287 0.16709082 0.88090372
-0.19694375 0.16709939 0.88094896
-0.24233811 0.17173846 0.88011068
-0.22569878 0.17185569 0.88071144
-0.1991881 0.17176668 0.88025528
-0.19690923 0.17187192 0.88079458
-0.2257598 0.17670481 0.88094956
-0.22324087 0.17661177 0.88048565
-0.24495742 0.17909662 0.88090277
-0.22076158 0.18134682 0.88016981
-0.21850196 0.18146273 0.88073242
-0.24488032 0.18384115 0.88062555
-0.22083543 0.18380748 0.88046426
-0.19916874 0.18614519 0.88016969
-0.20396882 0.18854594 0.88017696
-0.24490714 0.1910634 0.88072199
-0.21365809 0.19342802 0.88055772
-0.20404123 0.1958131 0.88048941
-0.26155248 0.19814461 0.88018489
-0.20882893 0.19820134 0.8804369
-0.26393688 0.20533079 0.88013536
-0.24278952 0.13840923 0.88175011
-0.24281193 0.14082573 0.88183147
-0.18507279 0.1431911 0.88159525
-0.24022035 0.15512682 0.88114244
-0.24023859 0.15994267 0.88120931
-0.23544559 0.1599502 0.88125074
-0.2329983 0.1599192 0.88108003
-0.23540635 0.16472703 0.88110393
-0.2331574 0.16723837 0.88168168
-0.23069538 0.16719584 0.88145745
-0.22835891 0.16724436 0.88171321
-0.1946888 0.16722511 0.88161176
-0.19231527 0.16725087 0.88174754
-0.24283585 0.16968723 0.88191831
-0.24027245 0.17197709 0.88133353
-0.22835006 0.1720445 0.881679
-0.22599554 0.17448549 0.88186944
-0.22339447 0.17433156 0.88109148
-0.19714493 0.1768852 0.88184887
-0.22103089 0.17916591 0.88124353
-0.21396644 0.17928486 0.88182855
-0.19941078 0.17916507 0.88123935
-0.21623421 0.18397661 0.8812744
-0.21381901 0.18396544 0.88122094
-0.22359002 0.18409944 0.88186276
-0.21869412 0.18402517 0.88150698
-0.2474678 0.18638247 0.88129163
-0.21377221 0.18872826 0.881028
-0.2018141 0.18877465 0.8812446
-0.21148743 0.19123538 0.88151467
-0.20419183 0.19115393 0.88113928
-0.20662771 0.19598992 0.88128448
-0.25487247 0.19614379 0.88197643
-0.20904638 0.19600531 0.88135374
-0.20180644 0.19837566 0.88121116
-0.20432653 0.20089374 0.88172054
-0.20669079 0.20325866 0.88155347
-0.24055861 0.13369814 0.88238317
-0.23814686 0.13369447 0.88235903
-0.24303482 0.13614313 0.88264096
-0.18522711 0.14090541 0.88233036
-0.18292387 0.14339033 0.88282186
-0.18767321 0.14815305 0.88252318
-0.24545774 0.15058918 0.88270199
-0.18996774 0.15047069 0.88200742
-0.19258501 0.16026482 0.88298422
-0.24292424 0.16493931 0.88223934
-0.23330863 0.16494197 0.88225359
-0.23097716 0.16499442 0.88253409
-0.19490983 0.16500911 0.88261271
-0.19251846 0.16502154 0.88267916
-0.24053864 0.16976258 0.88230991
-0.19963543 0.16974761 0.88223213
-0.24534109 0.17216226 0.88228256
-0.19492927 0.17224388 0.88270074
-0.24306148 0.1746573 0.88273776
-0.19968227 0.1745982 0.88243908
-0.24531542 0.17695367 0.88219023
-0.19498882 0.17711017 0.88297039
-0.21905452 0.17951481 0.88295966
-0.21642749 0.17933235 0.88206214
-0.2452857 0.18174107 0.88208336
-0.22373237 0.1818113 0.88242424
-0.24767657 0.18413541 0.88203508
-0.24534924 0.18659823 0.88231182
-0.2189928 0.18668263 0.88271093
-0.21881887 0.18893859 0.88200986
-0.21641405 0.18893805 0.88200736
-0.25016332 0.19141138 0.88232595
-0.25258803 0.19383152 0.88239455
-0.21663024 0.19394001 0.88288844
-0.20199026 0.19374788 0.8820138
-0.20220482 0.19636047 0.88295072
-0.2117973 0.19873475 0.8828063
-0.20694032 0.20109817 0.88261777
-0.2093185 0.20347713 0.88250101
-0.20444728 0.20341733 0.88224167
-0.25981918 0.20587 0.88244665
-0.24320997 0.13383357 0.88327706
-0.18555845 0.13392928 0.88390869
-0.18301478 0.13864633 0.88326061
-0.18793063 0.14594734 0.88373369
-0.18780765 0.15307388 0.88315541
-0.19039191 0.15562582 0.88397682
-0.24326709 0.15794739 0.88348448
-0.19036782 0.1580154 0.88386494
-0.24338169 0.16043116 0.8839007
-0.19021903 0.16270669 0.88317412
-0.22869685 0.16508488 0.88301802
-0.22633731 0.16993442 0.88320309
-0.19751878 0.16999562 0.88352114
-0.23115136 0.17234123 0.88319963
-0.24572399 0.17483968 0.88365948
-0.22887397 0.17484805 0.88370186
-0.1974287 0.17473258 0.88311821
-0.22871354 0.17713264 0.88308245
-0.19278786 0.1772995 0.88391429
-0.24316417 0.17954552 0.8831107
-0.22641596 0.1796267 0.88350999
-0.22396871 0.17959547 0.88335639
-0.22649795 0.18210092 0.88382989
-0.22650176 0.18451321 0.88384479
-0.19753174 0.18445775 0.88357913
-0.22168775 0.18692616 0.88386244
-0.21677408 0.18684416 0.88347471
-0.21425639 0.18674874 0.8830235
-0.19758961 0.18692099 0.88383794
-0.22154786 0.18921594 0.88330466
-0.21431503 0.19161512 0.88326514
-0.20242576 0.1917562 0.88391548
-0.21907723 0.19397576 0.88305122
-0.26748326 0.19416808 0.88392669
-0.22159903 0.19407625 0.88350868
-0.214385 0.19649453 0.88355356
-0.21198821 0.19650532 0.88360202
-0.21448742 0.19899797 0.88397563
-0.19995011 0.19891855 0.88362277
-0.21199842 0.20374081 0.88364458
-0.20721334 0.21340872 0.88378221
-0.18323597 0.13399284 0.88432813
-0.19057612 0.13406919 0.88483208
-0.18810911 0.13402992 0.88457298
-0.18320554 0.13638072 0.88418126
-0.18574435 0.14853428 0.88479418
-0.24592842 0.16775297 0.88439465
-0.19047906 0.16775046 0.88438141
-0.24595851 0.17018451 0.88450283
-0.23145589 0.17015764 0.88436323
-0.22895163 0.1700881 0.88400173
-0.19541493 0.17026092 0.88489997
-0.23860814 0.1725107 0.88406813
-0.23396039 0.17263754 0.88471818
-0.19294782 0.1726238 0.88464773
-0.24127054 0.17510383 0.88499457
-0.24344642 0.17734392 0.88413578
-0.23162223 0.17751703 0.8849988
-0.24825671 0.17974688 0.88410109
-0.22917266 0.17990018 0.88485515
-0.24829559 0.18218532 0.88423955
-0.19781078 0.18230642 0.88482732
-0.22435388 0.18714042 0.88487554
-0.25068235 0.18939844 0.88415658
-0.22417875 0.18940447 0.88418478
-0.20021971 0.1895393 0.88481414
-0.2194616 0.19190483 0.88460058
-0.21713878 0.19198303 0.88496107
-0.22425331 0.19428937 0.88447887
-0.20011112 0.1942576 0.88433427
-0.20017169 0.19672771 0.88460201
-0.24824023 0.19901302 0.88404244
-0.20973697 0.20147355 0.8842653
-0.20247301 0.20144087 0.88412184
-0.21465985 0.20398098 0.88468629
-0.20260207 0.20398079 0.8846854
-0.21713339 0.20886368 0.88493907
-0.21231535 0.20886993 0.8849656
-0.2098882 0.20885514 0.88490289
-0.20730428 0.20868218 0.88417011
-0.20498633 0.20877604 0.8845678
-0.20967749 0.21828419 0.88401455
-0.20738889 0.21841171 0.88453096
-0.23655036 0.13415308 0.88538581
-0.18343647 0.14137897 0.88529575
-0.1882652 0.1510336 0.88530701
-0.18831058 0.15831135 0.88552034
-0.1907486 0.16557376 0.88563293
-0.23889032 0.17030203 0.88511366
-0.23410366 0.17033018 0.88525999
-0.24871686 0.17525128 0.8857398
-0.23179284 0.17523365 0.88565069
-0.19556719 0.17522152 0.88558942
-0.24387051 0.18248127 0.88567597
-0.19555144 0.18244876 0.88551813
-0.19314854 0.18245904 0.88556802
-0.24389447 0.18491367 0.88576299
-0.22927368 0.18480556 0.8852452
-0.229421 0.18975349 0.88581401
-0.22692141 0.18968242 0.88548231
-0.22214963 0.19214419 0.88570392
-0.20038411 0.19210878 0.88554072
-0.22220284 0.1994348 0.88591605
-0.21964143 0.19930182 0.88532537
-0.21725434 0.19932583 0.885432
-0.21728599 0.20418267 0.88556099
-0.21487968 0.20660387 0.88559228
-0.21255001 0.20668586 0.88594371
-0.20524606 0.20662633 0.88568854
-0.22205485 0.20895502 0.88532609
-0.21961591 0.20893057 0.88522249
-0.21474554 0.20888737 0.88503945
-0.20275058 0.20895685 0.88533384
-0.20999271 0.21378574 0.88534349
-0.20520291 0.21382409 0.88550234
-0.20279162 0.21382667 0.88551301
-0.2076997 0.21632433 0.88585657
-0.21492505 0.21871994 0.88577926
-0.21233867 0.21854304 0.88506281
-0.20524636 0.21869788 0.88568985
-0.21010281 0.22355612 0.88580769
-0.19328417 0.13427491 0.88618982
-0.18129323 0.13433948 0.88661593
-0.24660014 0.14162083 0.88681024
-0.18124925 0.14397162 0.88640082
-0.18601292 0.14633377 0.88607353
-0.18360314 0.14875352 0.88610011
-0.18604578 0.15360679 0.88623005
-0.18841884 0.15598719 0.88602942
-0.2441788 0.15612207 0.88679558
-0.23676312 0.17050761 0.88618213
-0.1932929 0.1705168 0.88622987
-0.23675524 0.17291746 0.88615263
-0.24892133 0.17781173 0.88646799
-0.23454441 0.17790373 0.88692665
-0.23200499 0.18022673 0.88646126
-0.19814105 0.18019488 0.88630462
-0.19572704 0.18019664 0.88631326
-0.19337676 0.18025786 0.88661438
-0.22950126 0.18257357 0.8861239
-0.2272113 0.18750797 0.88661349
-0.2248349 0.19237606 0.88677275
-0.22716245 0.19471641 0.88642287
-0.25865951 0.19719811 0.8867172
-0.22245094 0.19723992 0.88690525
-0.21992902 0.19714639 0.88648462
-0.21755905 0.19718848 0.88667393
-0.19828483 0.19966707 0.88694781
-0.21266298 0.20196326 0.88641459
-0.25138974 0.20201723 0.88665152
-0.20066047 0.2020424 0.88676196
-0.20065585 0.20445487 0.88674158
-0.21743378 0.20673709 0.88616335
-0.21030708 0.20685504 0.88666892
-0.20777926 0.20674469 0.8861959
-0.2247396 0.20920773 0.88639683
-0.20058192 0.20921199 0.88641489
-0.21761319 0.21174273 0.88689452
-0.20308641 0.21172023 0.88680029
-0.21256444 0.2139452 0.88600385
-0.2200378 0.21416716 0.88692307
-0.21276778 0.21656728 0.88685143
-0.21024215 0.21645585 0.88639516
-0.21030937 0.22135895 0.88667858
-0.22005627 0.2238564 0.88699752
-0.21512263 0.22375444 0.88659352
-0.21263571 0.2236806 0.88630092
-0.20794757 0.22383526 0.88691378
-0.18156341 0.13938043 0.88793719
-0.18380389 0.14649816 0.88706899
-0.24924698 0.1514295 0.88762772
-0.18641035 0.15148734 0.88796669
-0.24673115 0.15378901 0.88728136
-0.19105245 0.16100162 0.88704365
-0.24684826 0.16354094 0.88770252
-0.18867749 0.1634568 0.88724577
-0.19123116 0.17325324 0.88787341
-0.23477167 0.17565614 0.88778603
-0.19354884 0.17558043 0.88740337
-0.19110915 0.17798001 0.88730693
-0.25169703 0.18774524 0.88773537
-0.19839527 0.19010217 0.88744175
-0.25634843 0.19486161 0.88708389
-0.2299065 0.19499443 0.88768858
-0.19834405 0.19488989 0.88721263
-0.22497793 0.19733591 0.88733685
-0.19842726 0.19739106 0.88758487
-0.22506706 0.19983378 0.8876884
-0.21538611 0.20225145 0.88767946
-0.22268575 0.20470847 0.88784146
-0.22012185 0.20457482 0.88726181
-0.20314869 0.20694913 0.88707227
-0.20081745 0.20703858 0.8874557
-0.22006229 0.21177311 0.88702178
-0.20799796 0.21179864 0.88712871
-0.20559199 0.21181121 0.88718134
-0.21773 0.21427523 0.88737059
-0.21523465 0.21419908 0.88705528
-0.21536671 0.21674995 0.88759947
-0.20562533 0.21668296 0.88732517
-0.22027141 0.2192349 0.88786471
-0.203329 0.21923363 0.88785958
-0.21531408 0.2215347 0.88738257
-0.21290421 0.22154407 0.88742012
-0.21787895 0.22410376 0.88797766
-0.20573039 0.22405352 0.88777858
-0.18166462 0.1370364 0.88843215
-0.18659531 0.15890621 0.88884771
-0.24709442 0.16612618 0.88858777
-0.18891592 0.16850644 0.88836694
-0.24936871 0.17328988 0.88806123
-0.18895219 0.17338282 0.88853753
-0.23973218 0.17574455 0.88823283
-0.2398265 0.17823583 0.88858229
-0.23508145 0.18073423 0.88895744
-0.1912961 0.18299615 0.88817489
-0.25187349 0.18545535 0.88835776
-0.23262818 0.18555652 0.8888424
-0.23004186 0.18784587 0.88821119
-0.23264839 0.19041874 0.88891959
-0.25432515 0.19274275 0.88846302
-0.19857316 0.19269381 0.88823748
-0.24718527 0.19768676 0.88891447
-0.19621238 0.19759704 0.88851106
-0.19617112 0.19997692 0.8883242
-0.21797943 0.20241269 0.88838714
-0.22539845 0.20497453 0.88899541
-0.19866103 0.20489042 0.88863057
-0.22534724 0.20735067 0.88879341
-0.22290945 0.20733665 0.88873333
-0.19853489 0.20960176 0.88806629
-0.22283885 0.21211453 0.88845181
-0.2155426 0.2120841 0.88832438
-0.21308498 0.2120481 0.88817358
-0.2107483 0.21213299 0.88852912
-0.20105408 0.21212639 0.88850147
-0.22291318 0.21460786 0.88874817
-0.20108318 0.21457934 0.88863003
-0.21804911 0.21701165 0.88867116
-0.20351239 0.21700901 0.88866037
-0.21792969 0.21931385 0.88818443
-0.20833424 0.22182937 0.88856292
-0.20599158 0.22191493 0.88890564
-0.20347829 0.22423849 0.88851148
-0.24729626 0.13959648 0.88931358
-0.1818461 0.14202158 0.88931972
-0.18911067 0.16140804 0.88928276
-0.19150996 0.17108209 0.88916785
-0.23754264 0.17591609 0.88909984
-0.24244279 0.17837867 0.88929445
-0.23752128 0.17832358 0.88901985
-0.24250828 0.18085158 0.88953465
-0.19160302 0.18086486 0.88959992
-0.23275636 0.18323459 0.88933218
-0.24495566 0.18814318 0.88961697
-0.19651671 0.18820073 0.88988912
-0.24485481 0.19048966 0.8892507
-0.23036636 0.19295992 0.88946414
-0.22784975 0.19288199 0.88910484
-0.19639747 0.19293499 0.88934916
-0.19407545 0.19303665 0.88981777
-0.23276721 0.19536458 0.8893736
-0.19646603 0.1954274 0.88965964
-0.22799835 0.19785805 0.88968468
-0.2279706 0.20025882 0.88957644
-0.22312067 0.20268345 0.88957548
-0.22056346 0.20256186 0.88904184
-0.19893469 0.20274705 0.88985467
-0.22802833 0.20516044 0.88980168
-0.22806124 0.20761585 0.88993013
-0.22059247 0.20743591 0.88915879
-0.19888347 0.2075448 0.88962555
-0.22795284 0.20994182 0.88950711
-0.19892065 0.21243446 0.88979185
-0.19880907 0.21473937 0.88929272
-0.22306523 0.21960273 0.88935441
-0.22062644 0.22201233 0.88929576
-0.21824765 0.2220584 0.88948029
-0.2229905 0.22437602 0.88905644
-0.17965557 0.13492459 0.8904776
-0.17974021 0.14470194 0.89089715
-0.1820773 0.14705659 0.89045042
-0.1845949 0.15198547 0.89088655
-0.18457226 0.15439495 0.89077735
-0.18686375 0.15670848 0.89012647
-0.24770324 0.15925115 0.89077717
-0.18690154 0.16402067 0.89030647
-0.18932997 0.16644891 0.89031398
-0.18946159 0.17142171 0.89093292
-0.1965701 0.18582551 0.89013094
-0.19421583 0.18832177 0.89046144
-0.19654627 0.1906551 0.89002299
-0.19421256 0.20045467 0.89044642
-0.225896 0.2029984 0.89095783
-0.19666135 0.21018659 0.89054412
-0.22566435 0.2124947 0.89004415
-0.22570147 0.21495616 0.89019054
-0.2208558 0.21738993 0.89022022
-0.20159581 0.21998326 0.89089549
-0.22342546 0.22238553 0.89079064
-0.20399877 0.22238392 0.8907842
-0.18219353 0.14957924 0.89101881
-0.24784705 0.16177313 0.8912943
-0.19194107 0.17632557 0.89116943
-0.1894794 0.17872413 0.89101666
-0.25268704 0.18119568 0.89122713
-0.1943762 0.18604802 0.89119673
-0.2333048 0.18852612 0.8914277
-0.1920073 0.18853654 0.89147699
-0.25507662 0.19088328 0.89108819
-0.19452092 0.19104867 0.89186025
-0.23343578 0.19349447 0.89192814
-0.19203813 0.19342764 0.8916201
-0.1943347 0.19815199 0.89100641
-0.23092826 0.20558283 0.89163363
-0.19690463 0.20558563 0.89164579
-0.19696 0.21536811 0.89189655
-0.22363506 0.21773329 0.8916263
-0.20170502 0.21767268 0.8913781
-0.19937621 0.21778293 0.89182961
-0.2260467 0.2201454 0.89155215
-0.18012047 0.13770732 0.89278191
-0.17997384 0.14002682 0.89205515
-0.18488328 0.15951954 0.89227837
-0.1873616 0.1619916 0.89249796
-0.25064504 0.16931061 0.89260656
-0.18734838 0.16927809 0.89243501
-0.25051513 0.1716547 0.89214391
-0.18734603 0.17414117 0.89242381
-0.25305721 0.17659532 0.89253271
-0.18974468 0.17654218 0.89226419
-0.25290844 0.1837859 0.89200795
-0.23601028 0.18388106 0.89246982
-0.189851 0.18394169 0.89276409
-0.19227426 0.18636526 0.89271641
-0.24567664 0.19356111 0.89223534
-0.19463989 0.19603062 0.89240569
-0.23110054 0.19843942 0.89229888
-0.23103248 0.20081252 0.89203608
-0.22878741 0.20340987 0.89276373
-0.19699897 0.20325248 0.89207298
-0.19714837 0.2082736 0.89274949
-0.19703399 0.21301693 0.89223152
-0.22879761 0.21558712 0.89280355
-0.19953354 0.2203877 0.89253336
-0.22640188 0.22292536 0.89295304
-0.20202297 0.22288296 0.89278316
-0.17783991 0.13539024 0.89355075
-0.18024579 0.14267369 0.89340311
-0.18519922 0.16222849 0.89380312
-0.18504237 0.16452539 0.89304608
-0.25347275 0.1793222 0.89399832
-0.23876809 0.1816957 0.89368653
-0.23617312 0.18644235 0.8930856
-0.19002724 0.18898402 0.89359283
-0.2363092 0.19142139 0.89360017
-0.19234568 0.1913031 0.89304799
-0.18997319 0.19380046 0.89333868
-0.23634049 0.19631901 0.89371854
-0.23394151 0.19878671 0.89386046
-0.23375933 0.20106652 0.8931644
-0.19490941 0.20360984 0.89364141
-0.19481461 0.20594555 0.89320678
-0.23133761 0.20838201 0.89321417
-0.2315153 0.2109787 0.89390028
-0.19489579 0.21090285 0.89357895
-0.2289515 0.21329685 0.89340401
-0.22648209 0.21813454 0.89326942
-0.18049446 0.14774778 0.89463562
-0.1853392 0.1574747 0.89447868
-0.18779086 0.1672395 0.89454275
-0.18788143 0.17219926 0.89497417
-0.2413062 0.18177259 0.89406472
-0.19021071 0.18185207 0.89445567
-0.24393117 0.18435167 0.89475393
-0.19261889 0.19645035 0.89431649
-0.19268407 0.20139402 0.89461917
-0.23159426 0.20373827 0.89420515
-0.23406343 0.20620368 0.89432633
-0.19264553 0.20622994 0.89444023
-0.19512309 0.20871024 0.89462113
-0.19519424 0.21366532 0.89494735
-0.19505337 0.21594884 0.89430147
-0.22929466 0.2184944 0.89474308
-0.19745253 0.21834391 0.89412683
-0.22933605 0.22097321 0.89490461
-0.19745024 0.2207786 0.89411646
-0.19273192 0.22095758 0.89484131
-0.20000193 0.22334364 0.89462847
-0.17830105 0.1381833 0.89586776
-0.1831042 0.15520874 0.89547247
-0.24403319 0.18686874 0.89512813
-0.25625026 0.18932143 0.89518821
-0.23693122 0.18948303 0.89595234
-0.19041951 0.19181496 0.89543748
-0.2368385 0.19429141 0.89560175
-0.19295689 0.20900531 0.89588588
-0.19281903 0.21129626 0.89524573
-0.23192875 0.21623744 0.89549667
-0.19296682 0.21634254 0.8959319
-0.19540735 0.21878287 0.89592439
-0.19522887 0.22102298 0.89510614
-0.18322791 0.13333052 0.89607745
-0.18079337 0.13333644 0.89611727
-0.17851712 0.13346085 0.8969534
-0.17835915 0.14067112 0.89615971
-0.18086365 0.15049362 0.8964656
-0.18327129 0.15290722 0.89628959
-0.1833135 0.16516097 0.89649606
-0.25424093 0.17497709 0.89670771
-0.18821852 0.17739609 0.89657992
-0.18810856 0.17973496 0.89605618
-0.25672641 0.18722853 0.8968516
-0.19056576 0.18707691 0.89612526
-0.19303963 0.19932255 0.89626998
-0.19060425 0.19933063 0.89630628
-0.23469202 0.20431311 0.8967281
-0.23216145 0.21401095 0.89639509
-0.2322675 0.22144236 0.89680457
-0.19074878 0.22148713 0.89698589
-0.1785825 0.14573897 0.89728194
-0.18348829 0.16042639 0.89735091
-0.18348616 0.16287054 0.89734048
-0.18598805 0.16781297 0.89761019
-0.18589807 0.17017733 0.89717585
-0.1859103 0.17507997 0.89723492
-0.23984708 0.18496384 0.89772511
-0.18851362 0.18501751 0.89798564
-0.23984879 0.18741223 0.89773154
-0.24706385 0.19709988 0.89727336
-0.19076085 0.1970492 0.89704263
-0.23741588 0.20210671 0.89778507
-0.19090313 0.2020902 0.89771169
-0.19322747 0.20440744 0.89714211
-0.19085163 0.21182111 0.89746952
-0.19329898 0.21426857 0.89747411
-0.19088969 0.21675706 0.89764851
-0.23249917 0.21921624 0.89769906
-0.19334784 0.21921672 0.89770103
-0.1861027 0.1336409 0.8981635
-0.17630567 0.13608605 0.89814293
-0.17885959 0.14351545 0.89867413
-0.18377082 0.15822361 0.8987326
-0.18856126 0.18996103 0.89821255
-0.18860279 0.19490072 0.89841038
-0.23762926 0.19983895 0.898592
-0.23508693 0.20955381 0.89823699
-0.23523617 0.21213683 0.89880717
-0.23524781 0.22194782 0.89885163
-0.17648979 0.13377741 0.89908087
-0.17904468 0.14856832 0.89960408
-0.18629077 0.17298755 0.8990711
-0.18874934 0.18279804 0.89910853
-0.24270226 0.18527541 0.89923728
-0.24039517 0.19274445 0.89977658
-0.18880171 0.19265477 0.89935791
-0.237846 0.20737617 0.89941156
-0.19135679 0.21483463 0.89984506
-0.23529689 0.21709287 0.89903921
-0.1913804 0.21976739 0.89995605
-0.17678414 0.1389102 0.90058041
-0.18418165 0.16839842 0.9007417
-0.18651174 0.17809999 0.90013754
-0.18663657 0.18067446 0.90073997
-0.18903492 0.18798369 0.90046889
-0.24309123 0.18802744 0.90067846
-0.24067895 0.19788307 0.90083873
-0.19158582 0.20526867 0.900922
-0.1915857 0.20772432 0.90092146
-0.2357512 0.2199674 0.90077507
-0.18905003 0.22236493 0.90054083
-0.17700067 0.14153819 0.90168345
-0.17932341 0.15125559 0.90100455
-0.18188949 0.15626217 0.90155023
-0.18190511 0.16119099 0.90162766
-0.18179947 0.16355364 0.90110403
-0.1819497 0.1661471 0.90184873
-0.2407458 0.19056936 0.90108895
-0.1892442 0.1980208 0.90146571
-0.18921757 0.20044985 0.90133893
-0.18930008 0.20299523 0.90173191
-0.2382948 0.20531119 0.90110868
-0.23597947 0.2152649 0.90164727
-0.18201196 0.15390825 0.90215725
-0.18215853 0.15895443 0.90288377
-0.18459634 0.17123839 0.9027698
-0.24600595 0.1908391 0.90236437
-0.24111789 0.19578394 0.90248168
-0.18727067 0.18375194 0.90380031
-0.18723769 0.18618277 0.90364116
-0.18730596 0.1911788 0.9039706
-0.24637318 0.19358735 0.90371138
-0.24141268 0.20341238 0.90358502
-0.23887128 0.21073233 0.90328866
-0.19207239 0.21071401 0.9032101
-0.23882614 0.21315426 0.90311795
-0.18976173 0.21334617 0.90393102
-0.23885898 0.21810776 0.90324217
-0.1896271 0.22058146 0.90328968
-0.17754783 0.14444116 0.9044708
-0.17750387 0.14687023 0.90424681
-0.18005367 0.15680356 0.90467376
-0.18491752 0.17646651 0.90434057
-0.18742849 0.19623524 0.90456194
-0.18992601 0.20613255 0.90471357
-0.18987456 0.21840389 0.90446848
-0.17525011 0.13470832 0.90533727
-0.17523848 0.13716701 0.90527713
-0.17770641 0.14950545 0.90527862
-0.18026288 0.16192347 0.90572488
-0.1827711 0.16936654 0.90592003
-0.18523473 0.1742999 0.90589184
-0.18516161 0.18163611 0.90553421
-0.18769448 0.18910615 0.90584564
-0.18771157 0.1940622 0.90592813
-0.24180478 0.20127574 0.9050526
-0.19010994 0.20880066 0.9055897
-0.23948778 0.21621336 0.90561998
-0.1901045 0.21619996 0.90556383
-0.17788596 0.15212665 0.90619332
-0.1803223 0.15456784 0.9060235
-0.18049018 0.15965569 0.90686703
-0.18533321 0.17933382 0.90637344
-0.18778694 0.20155135 0.9062919
-0.24214533 0.20897071 0.90632725
-0.18063618 0.16720675 0.90760058
-0.24486169 0.19434284 0.90723819
-0.1880161 0.19932388 0.90739787
-0.18797353 0.20422447 0.90719241
-0.24239971 0.20671715 0.90727937
-0.19050603 0.21170934 0.90747648
-0.17583117 0.14010692 0.90833896
-0.17595312 0.14268181 0.90896899
-0.18071674 0.16480623 0.9080053
-0.18337278 0.17240161 0.90890229
-0.18329784 0.17728418 0.90853089
-0.18571076 0.18465047 0.90821981
-0.18567771 0.18709284 0.90805823
-0.18829404 0.21448101 0.90873927
-0.18593344 0.19230777 0.90930885
-0.24308178 0.21473898 0.9098323
-0.24296616 0.21959461 0.90939957
-0.18851134 0.21968839 0.90978795
-0.18362136 0.1751162 0.91013438
-0.18364409 0.18010025 0.91024703
-0.18615812 0.19005853 0.91040766
-0.18858592 0.20737073 0.91014791
-0.18869564 0.20997374 0.91067743
-0.1886874 0.21741132 0.91063768
-0.17890526 0.15548266 0.91138589
-0.18384281 0.18277901 0.91123205
-0.18646069 0.19533876 0.91188741
-0.18637452 0.19773299 0.91146594
-0.24344005 0.21257177 0.91117328
-0.18878372 0.21255526 0.91110253
-0.17921436 0.15823987 0.91296047
-0.18164983 0.1706329 0.91269362
-0.18659343 0.20294011 0.91253656
-0.2437131 0.2177832 0.91219527
-0.18190591 0.1733648 0.91398025
-0.18687414 0.20075424 0.91390938
-0.18671414 0.20556043 0.91312695
-0.18452649 0.18595184 0.91462076
-0.18459886 0.18851885 0.91497946
-0.18218294 0.17861915 0.91537219
-0.18728757 0.21617846 0.91593128
-0.18490925 0.19383241 0.91651797
-0.18730269 0.20870528 0.91600525
-0.18738349 0.21129325 0.91640031
-0.18750064 0.21392488 0.91697329
-0.18504557 0.19147517 0.91719359
-0.18754438 0.21897498 0.91718715
-0.18543427 0.1993935 0.91912019
-0.18572046 0.20471971 0.92053872
-0.24837017 0.21719483 0.92023748
-0.1863784 0.21803562 0.92379993
-0.18656142 0.21320853 0.92470706
-0.1866619 0.21584532 0.92520511
