# .PCD v0.7 - Point Cloud Data file format
VERSION 0.7
FIELDS x y z
SIZE 4 4 4
TYPE F F F
COUNT 1 1 1
WIDTH 1202
HEIGHT 1
VIEWPOINT 0 0 0 1 0 0 0
POINTS 1202
DATA ascii
-0.20168033 0.13502389 0.86018348
-0.20441285 0.13528053 0.86181843
-0.199733 0.13529308 0.86189836
-0.2019739 0.1399167 0.86143559
-0.20932099 0.13541625 0.86268306
-0.20214297 0.13768372 0.86215663
-0.20451671 0.14005002 0.86225635
-0.19993651 0.1401345 0.86277652
-0.2118587 0.13553536 0.86344182
-0.20711774 0.13551328 0.8633011
-0.19781455 0.13558847 0.86378014
-0.20485911 0.13793018 0.86369991
-0.20478056 0.1449375 0.86336875
-0.20245586 0.14495806 0.86349118
-0.20748533 0.13811117 0.8648333
-0.2003157 0.13804403 0.86441278
-0.20748512 0.14046843 0.86483246
-0.19805472 0.14046785 0.86482882
-0.20516267 0.14285016 0.86497974
-0.20272723 0.14279546 0.86464858
-0.20040067 0.14517432 0.86477947
-0.21472967 0.13586269 0.86552715
-0.2098836 0.13813807 0.86500174
-0.20993687 0.1405316 0.86522132
-0.20294923 0.15003027 0.8655954
-0.20059447 0.1500338 0.86561579
-0.21740028 0.13605754 0.86676842
-0.2125337 0.13832828 0.86619276
-0.19849491 0.13841742 0.86675096
-0.21249032 0.14066067 0.86601597
-0.20075798 0.14307173 0.86632138
-0.2079694 0.14552209 0.86685097
-0.1984804 0.14549465 0.8666876
-0.20325279 0.14789167 0.86689013
-0.20563592 0.15026939 0.86697501
-0.20307912 0.15484826 0.86614943
-0.21997418 0.13618831 0.86760151
-0.19628261 0.13615908 0.86741531
-0.21532635 0.13860607 0.86793226
-0.2176315 0.14093262 0.86769032
-0.21513516 0.14084674 0.86716163
-0.21273474 0.14554913 0.86701214
-0.21055114 0.1456735 0.86775291
-0.20109607 0.14804354 0.86778033
-0.21293178 0.15041502 0.8678152
-0.20801005 0.15027726 0.86702037
-0.20566645 0.15501887 0.8671037
-0.20343626 0.15985085 0.86767262
-0.22487617 0.13629261 0.86826599
-0.22249396 0.13628316 0.86820573
-0.21785106 0.13870722 0.86856568
-0.2200786 0.14098509 0.86801338
-0.22252569 0.14103644 0.86832952
-0.19660269 0.14111769 0.86882979
-0.21310867 0.14343749 0.86853611
-0.21066689 0.14338693 0.86822999
-0.2083225 0.14340225 0.86832273
-0.19888391 0.1434232 0.86844957
-0.21554542 0.14585185 0.8688153
-0.20609508 0.14823641 0.86891085
-0.21075839 0.15055226 0.86860704
-0.20370945 0.15296058 0.86883783
-0.20825508 0.15518656 0.86804175
-0.20124422 0.15525411 0.86841959
-0.20589657 0.15992479 0.86807394
-0.20844062 0.16006131 0.86881506
-0.22757091 0.13648933 0.86951923
-0.19434431 0.13645828 0.86932141
-0.22286153 0.13887881 0.86964005
-0.2204373 0.13884497 0.86942816
-0.22531617 0.14130206 0.8699649
-0.21573238 0.14360805 0.86956888
-0.21807088 0.14595705 0.86944205
-0.19673574 0.14595297 0.86941773
-0.22050688 0.14600079 0.86970252
-0.1992182 0.14840674 0.86990929
-0.21573423 0.15072027 0.86957633
-0.19902934 0.15063503 0.8690846
-0.20618045 0.1530368 0.8692708
-0.21109036 0.15553223 0.86997521
-0.20390865 0.15785141 0.86968744
-0.20146564 0.16016449 0.86937505
-0.20378418 0.1648626 0.8691566
-0.20872308 0.16502115 0.86999243
-0.23012233 0.13659692 0.87020463
-0.2255256 0.13905981 0.87077355
-0.19708286 0.13908827 0.87095177
-0.22060579 0.14369455 0.87009269
-0.21835048 0.1437712 0.87055683
-0.22304752 0.14611213 0.8703658
-0.21366586 0.1485599 0.87080699
-0.20875973 0.14844699 0.8701452
-0.22302994 0.15084521 0.87029719
-0.22078784 0.1509342 0.87081069
-0.21840133 0.15092535 0.87075955
-0.20873429 0.15317208 0.87003917
-0.20161168 0.15316612 0.87000531
-0.2135835 0.15562092 0.8704713
-0.20645186 0.15798348 0.87041509
-0.20658103 0.16283052 0.87095964
-0.20415485 0.16278897 0.87073749
-0.206398 0.16505823 0.87018794
-0.20173599 0.16512533 0.87054169
-0.20411327 0.16987485 0.87056017
-0.20165081 0.16979952 0.87017417
-0.1924561 0.13680048 0.87150145
-0.19485439 0.14156814 0.87160307
-0.22325614 0.14387409 0.87117988
-0.19728844 0.14398646 0.87186027
-0.21145794 0.14867644 0.87149012
-0.22577986 0.15109792 0.87175524
-0.21386658 0.15345126 0.87162501
-0.21134348 0.15334447 0.87101841
-0.19963861 0.15584864 0.87174505
-0.20919758 0.15826574 0.87197024
-0.20193094 0.15815915 0.87138295
-0.20902754 0.16288695 0.87126148
-0.20193674 0.16291434 0.87140799
-0.20201971 0.16773386 0.87176603
-0.20447236 0.13451596 0.87209171
-0.2023024 0.13465388 0.8729859
-0.19021983 0.13690075 0.87214017
-0.23321868 0.13702248 0.87291569
-0.1951353 0.13939296 0.8728596
-0.22838515 0.14173499 0.87263036
-0.22606027 0.14652714 0.87283796
-0.19506343 0.14647681 0.87253809
-0.22121781 0.14884983 0.87250656
-0.21885462 0.14886011 0.87256682
-0.21636641 0.14878465 0.87212449
-0.19735223 0.14878766 0.87214214
-0.19732371 0.15114315 0.87201613
-0.22356296 0.15358368 0.8723771
-0.22357258 0.15596834 0.87241465
-0.21644156 0.15597062 0.8724274
-0.21892323 0.1608029 0.87284034
-0.21412618 0.16077392 0.87268305
-0.21168487 0.16072644 0.87242538
-0.19979165 0.16072422 0.87241334
-0.21167947 0.16547841 0.87240314
-0.20455618 0.16786531 0.87244922
-0.20683844 0.17016457 0.87204492
-0.20218855 0.17263061 0.87249464
-0.20701616 0.17506896 0.87279415
-0.20230019 0.17510551 0.87297636
-0.20012553 0.13479045 0.87387127
-0.1880385 0.13704358 0.87305009
-0.22862454 0.13950241 0.87354499
-0.2262636 0.14427757 0.87362301
-0.22375692 0.14895688 0.87313402
-0.22618768 0.1537514 0.87332988
-0.22158813 0.15386359 0.87396711
-0.21662328 0.15372148 0.87315989
-0.19996862 0.1537261 0.87318611
-0.22622065 0.15615472 0.87345719
-0.22156803 0.15623172 0.87388784
-0.21915975 0.15621305 0.87378335
-0.19774482 0.15622979 0.87387711
-0.2001494 0.15862972 0.87397552
-0.21675457 0.16095926 0.87368912
-0.21196662 0.16332163 0.8735866
-0.21424104 0.1656203 0.87315118
-0.20961185 0.17048694 0.87369698
-0.19998838 0.17040409 0.87327236
-0.20478676 0.1728162 0.87343264
-0.20469189 0.17511588 0.87302804
-0.20735723 0.13484612 0.87423217
-0.19309172 0.14201914 0.87437975
-0.19549325 0.14441593 0.87446076
-0.2193951 0.15399644 0.87472171
-0.21460372 0.15874837 0.87462926
-0.21212947 0.15868093 0.87425774
-0.22169115 0.16108534 0.87437344
-0.21461724 0.16352688 0.87468439
-0.21941936 0.16593654 0.87481844
-0.20037167 0.16596076 0.87494606
-0.20742984 0.16826726 0.8745383
-0.20026025 0.1682521 0.87445951
-0.2121972 0.17065084 0.87453687
-0.20732795 0.17294995 0.87410867
-0.20507513 0.18021213 0.87466258
-0.2026346 0.18016203 0.87441945
-0.23625164 0.13740256 0.87533706
-0.23164043 0.13988572 0.87594527
-0.19334166 0.13981646 0.87551153
-0.19095586 0.13981697 0.87551475
-0.23145673 0.14216058 0.87525064
-0.19093503 0.14218797 0.87541926
-0.19333246 0.14696898 0.87546986
-0.22926103 0.14705409 0.87597692
-0.22667792 0.14931323 0.87522274
-0.19571133 0.14934964 0.87543625
-0.19562665 0.15167029 0.87505746
-0.19800532 0.15405042 0.87502831
-0.19572966 0.1565232 0.8755182
-0.21729006 0.15896949 0.87584752
-0.19820605 0.15898181 0.87591541
-0.19808625 0.16127187 0.87538594
-0.21966894 0.16373797 0.87581348
-0.21723315 0.16370144 0.87561816
-0.20053656 0.1637104 0.87566608
-0.2170883 0.16597749 0.87503427
-0.22194363 0.16604103 0.87536925
-0.21252351 0.16852574 0.87588167
-0.20998131 0.16840169 0.87523693
-0.21472946 0.17076886 0.87514174
-0.20054211 0.17326289 0.87569028
-0.21235543 0.17554934 0.87518901
-0.21003243 0.17560169 0.87545002
-0.20044583 0.17556556 0.87526989
-0.20298733 0.17808796 0.87594157
-0.20761913 0.18035094 0.87533635
-0.20052771 0.18041092 0.87562746
-0.20520014 0.18509325 0.87519574
-0.20299786 0.18526059 0.87598699
-0.23421888 0.1352205 0.87665933
-0.23165831 0.13512078 0.87601292
-0.22711937 0.1352618 0.8769272
-0.21497521 0.1351409 0.87614328
-0.21029118 0.13520031 0.8765285
-0.19834973 0.13520367 0.87655032
-0.19122203 0.13523218 0.87673509
-0.18879053 0.13520235 0.87654173
-0.18630126 0.13751787 0.87607163
-0.18872608 0.13993318 0.87624246
-0.19363017 0.14480522 0.876818
-0.2293945 0.15191805 0.8764869
-0.19603036 0.15437348 0.8768633
-0.22949965 0.1567682 0.87688869
-0.22473797 0.1591718 0.87696218
-0.21987075 0.15910934 0.87661809
-0.22459108 0.16145666 0.87638897
-0.22218892 0.16383578 0.87633669
-0.19844568 0.16634548 0.87697434
-0.21497551 0.16857632 0.87614453
-0.21739784 0.17099136 0.87628198
-0.21274564 0.1734819 0.87679714
-0.21027611 0.17341633 0.87646574
-0.21748641 0.17584018 0.87663901
-0.20793335 0.17823426 0.87666112
-0.20548986 0.17818755 0.87643141
-0.20308173 0.18294835 0.87634891
-0.20557016 0.18303709 0.87677395
-0.20796457 0.185431 0.87679273
-0.23670819 0.13527745 0.87702864
-0.22958648 0.13530704 0.87722045
-0.21771549 0.13535978 0.87756234
-0.21286197 0.1353157 0.8772766
-0.19606443 0.13527545 0.87701565
-0.1936813 0.13528068 0.87704957
-0.23441654 0.14250955 0.87739915
-0.18893038 0.14247574 0.87719101
-0.22955656 0.14485282 0.87710613
-0.193682 0.15201612 0.87705272
-0.22959115 0.15443949 0.87723827
-0.19372959 0.15683605 0.8772682
-0.22719274 0.15921687 0.8772105
-0.22246324 0.15925466 0.87741864
-0.22722562 0.16163139 0.87733746
-0.19387592 0.16174071 0.87793082
-0.2177269 0.16885796 0.87760836
-0.22003618 0.17118566 0.87727767
-0.19853179 0.17120072 0.87735492
-0.21781883 0.17371571 0.87797886
-0.21539509 0.17369112 0.87785459
-0.2151935 0.1759192 0.87703294
-0.22019193 0.17609285 0.87789863
-0.20096633 0.17841348 0.87754267
-0.21044461 0.18072835 0.87716806
-0.19864739 0.1808721 0.87786579
-0.20092663 0.18316138 0.87736934
-0.21044551 0.18551117 0.87717181
-0.2009078 0.18553555 0.87728709
-0.20822018 0.18805186 0.87787044
-0.20580184 0.18802865 0.87776208
-0.22513817 0.13550808 0.87852383
-0.2347109 0.14029385 0.87850088
-0.18689345 0.14035062 0.87885642
-0.237184 0.14273572 0.87879157
-0.19160914 0.14508466 0.87851
-0.2324298 0.14754988 0.87893027
-0.19158587 0.14746143 0.87840331
-0.1940075 0.14987688 0.87852669
-0.19634701 0.15941094 0.87827969
-0.19634035 0.16179951 0.87824994
-0.1988139 0.16425921 0.87860161
-0.22507346 0.1665915 0.87827134
-0.19629043 0.16654508 0.8780266
-0.22042093 0.16908948 0.87881166
-0.19640888 0.17143519 0.87855649
-0.19869402 0.17612758 0.87807184
-0.21087432 0.17870148 0.87895918
-0.21320641 0.18104319 0.8786962
-0.21084446 0.18346728 0.87883466
-0.20828815 0.18332581 0.87815696
-0.21074526 0.18816985 0.87842125
-0.22298363 0.1356542 0.87947112
-0.22055973 0.13563783 0.87936503
-0.18695492 0.13560396 0.87914544
-0.18696053 0.14279748 0.87917185
-0.23005879 0.1499619 0.8790251
-0.23267302 0.15250097 0.87985003
-0.19180498 0.15242434 0.87940788
-0.19418292 0.15480617 0.87932104
-0.23267494 0.15729892 0.8798573
-0.19427617 0.15967658 0.87974328
-0.22534436 0.16439509 0.87932843
-0.19417386 0.16678281 0.87927997
-0.22294791 0.16918926 0.87933022
-0.19894797 0.16916306 0.87919408
-0.22300811 0.17163251 0.87956768
-0.19429231 0.17168103 0.87981635
-0.22056583 0.17399478 0.87938935
-0.22289744 0.17634007 0.8791312
-0.2182501 0.1788556 0.87971723
-0.2132898 0.17871787 0.87903982
-0.22062509 0.18123469 0.87962562
-0.21820213 0.18121372 0.87952387
-0.19906202 0.18364754 0.8796981
-0.21814299 0.18835498 0.87928551
-0.21570882 0.18832235 0.87913316
-0.20376243 0.18835516 0.87928629
-0.20618537 0.19317326 0.87939787
-0.18479243 0.13817529 0.88025975
-0.23753949 0.1405506 0.88010865
-0.23280899 0.14539087 0.88036418
-0.18971509 0.14546852 0.88083434
-0.2352698 0.14782898 0.88059282
-0.18958481 0.14776799 0.88022947
-0.23297192 0.15509829 0.88098031
-0.19197425 0.15735734 0.88018399
-0.23035862 0.15975416 0.8801707
-0.23040324 0.16218477 0.88034123
-0.19213137 0.16228853 0.88090438
-0.2280082 0.16458778 0.88035905
-0.19677787 0.16455935 0.88020694
-0.19449329 0.16465648 0.88072652
-0.22799017 0.16697429 0.88028944
-0.1967442 0.16932897 0.88005638
-0.22560883 0.1717872 0.88036042
-0.19924568 0.17421646 0.88050973
-0.22563443 0.17660668 0.88046032
-0.19694024 0.17670155 0.88093328
-0.22319199 0.17897263 0.88029289
-0.22080371 0.17898177 0.88033777
-0.19914791 0.17892888 0.88007766
-0.21611869 0.17907648 0.88080364
-0.22319806 0.18137711 0.88031685
-0.21597765 0.18135896 0.88022882
-0.19913256 0.18611138 0.88000983
-0.22091337 0.18867405 0.88077497
-0.2135765 0.18855548 0.88022143
-0.20173216 0.18869801 0.88088679
-0.20636798 0.19094512 0.88017672
-0.20409086 0.19105941 0.88070357
-0.21128528 0.19345316 0.8806721
-0.20396361 0.19333944 0.88015443
-0.20167325 0.1934438 0.88062954
-0.20895344 0.19831954 0.88096189
-0.20644936 0.19822091 0.8805238
-0.20655623 0.20312634 0.8809796
-0.20414038 0.20311196 0.88091725
-0.24023518 0.13592038 0.8811968
-0.24027255 0.1383439 0.88133389
-0.18502936 0.1431575 0.88138837
-0.18744636 0.14797397 0.88145643
-0.19221577 0.15034851 0.88129133
-0.23558366 0.15283333 0.88176757
-0.18993928 0.16246739 0.88187522
-0.22583918 0.16956043 0.88125932
-0.22822043 0.17194684 0.8811785
-0.22348474 0.17440201 0.88144755
-0.19712971 0.17446795 0.8817808
-0.2283181 0.17682639 0.88155562
-0.1945682 0.17672811 0.88106573
-0.22347492 0.18400466 0.88140881
-0.21389361 0.18402962 0.88152832
-0.21858259 0.18633294 0.88105744
-0.21620423 0.18635298 0.88115221
-0.21379299 0.18634483 0.88111371
-0.1971762 0.1865299 0.88198876
-0.20915934 0.19130377 0.88182998
-0.20193721 0.1912934 0.88178217
-0.21640481 0.19373821 0.88196975
-0.20897801 0.19353957 0.88106549
-0.20668203 0.19604142 0.8815161
-0.211495 0.19845109 0.88154626
-0.20421422 0.19838122 0.8812359
-0.21146573 0.20322886 0.88142425
-0.20911561 0.2032799 0.88164562
-0.21157217 0.20813881 0.88186789
-0.20913245 0.20810311 0.88171661
-0.20672876 0.20810282 0.88171542
-0.20434715 0.20812504 0.88180953
-0.18518156 0.13606174 0.88211334
-0.23575468 0.14572835 0.88240767
-0.18762514 0.1457101 0.88229716
-0.1851891 0.14809027 0.88214928
-0.23336101 0.15054648 0.88245165
-0.19010881 0.15298842 0.88266236
-0.19240902 0.15530904 0.88217741
-0.23582636 0.15780284 0.88267595
-0.19007392 0.15777145 0.88250041
-0.2333203 0.16254522 0.88229769
-0.19241586 0.16733836 0.88220876
-0.22858779 0.16981779 0.88259691
-0.1949746 0.16987728 0.88290602
-0.23094881 0.1721902 0.88242573
-0.2261295 0.17458892 0.88239217
-0.19491012 0.17463282 0.88261402
-0.22618142 0.17944063 0.88259476
-0.22610533 0.18178527 0.88229787
-0.1972899 0.18182637 0.88249731
-0.2262262 0.18428873 0.88276947
-0.2212262 0.18413274 0.88202226
-0.21663153 0.18431467 0.88289374
-0.19733718 0.18427607 0.88270885
-0.22144407 0.18672068 0.88289088
-0.22377327 0.1890619 0.88258553
-0.21906283 0.19155613 0.88299322
-0.21662997 0.19153316 0.88288736
-0.21176282 0.19148439 0.88266253
-0.19973201 0.1914836 0.8826589
-0.21901897 0.19392417 0.88281637
-0.21403325 0.19376767 0.88210386
-0.19964574 0.19380584 0.88227767
-0.20938611 0.19632384 0.88278604
-0.20443031 0.1961865 0.88216841
-0.20205525 0.19862022 0.88229758
-0.20700862 0.20116454 0.88290906
-0.20199627 0.20337084 0.88204002
-0.21166666 0.20582686 0.88226175
-0.20942755 0.20598996 0.8829608
-0.21412127 0.20828013 0.88246661
-0.20699154 0.2131803 0.88283622
-0.24075316 0.13380626 0.88309681
-0.23846483 0.13387299 0.88353717
-0.18314497 0.13874497 0.88388896
-0.18551005 0.14112064 0.88367814
-0.18557654 0.14599048 0.88399488
-0.23832788 0.14823808 0.8830297
-0.19023396 0.15068156 0.88324344
-0.18796411 0.15320139 0.88389111
-0.23614848 0.15560907 0.88388163
-0.18779948 0.15788168 0.88311696
-0.23370394 0.16040352 0.88374841
-0.19262272 0.16029622 0.88315719
-0.19027868 0.16034956 0.8834511
-0.23125036 0.16518956 0.88357794
-0.19259927 0.1650908 0.88304961
-0.23117857 0.16754603 0.88330364
-0.19280176 0.17249312 0.88397801
-0.22876731 0.17476657 0.88329005
-0.19267222 0.17719315 0.88338411
-0.22892277 0.17970403 0.88389027
-0.1951452 0.18206973 0.88367856
-0.22890118 0.18450531 0.88380694
-0.2191868 0.18443975 0.88349289
-0.22393994 0.18679515 0.88324291
-0.19989125 0.18922837 0.88336265
-0.19758712 0.19173698 0.88382685
-0.21194917 0.19646913 0.8834393
-0.20230284 0.19645566 0.88337874
-0.21448642 0.19899705 0.88397151
-0.1998153 0.19878443 0.88302702
-0.20961198 0.20135349 0.88373834
-0.20463735 0.20119935 0.88306183
-0.21426576 0.2036065 0.88306212
-0.19995777 0.20374358 0.88365662
-0.21439056 0.20613357 0.88357645
-0.2070902 0.20605907 0.88325703
-0.20474721 0.20612413 0.88353592
-0.20238799 0.20858316 0.88375056
-0.20957562 0.21095261 0.88358504
-0.21207331 0.21104135 0.88395673
-0.21207926 0.21345685 0.88398153
-0.20952082 0.21330532 0.88335401
-0.20478307 0.21338663 0.88369066
-0.2120177 0.22303048 0.88372493
-0.23642908 0.13408431 0.88493186
-0.1809504 0.13408543 0.88493931
-0.18319924 0.13637602 0.88415086
-0.24111678 0.14365162 0.88443059
-0.23861828 0.14600879 0.88410574
-0.18334725 0.14854622 0.88486522
-0.2362422 0.15085027 0.8842324
-0.18812266 0.15091924 0.8846367
-0.23872072 0.15330437 0.88448524
-0.18564548 0.15809734 0.88432324
-0.18567747 0.16294646 0.88447565
-0.2339493 0.16780639 0.88467628
-0.23160304 0.17509016 0.88492548
-0.23143895 0.17737657 0.8842985
-0.19769298 0.1797874 0.88430035
-0.2267658 0.18714032 0.88487506
-0.22658651 0.18940249 0.88417548
-0.22179888 0.19184083 0.88430554
-0.21455283 0.19182773 0.88424522
-0.22178626 0.19424023 0.88425517
-0.19777533 0.19433108 0.88466871
-0.20019023 0.19674592 0.88468391
-0.19766341 0.19904131 0.88416809
-0.21210994 0.20143804 0.88410944
-0.20258419 0.20155147 0.88460726
-0.1978091 0.20401177 0.88481981
-0.20265791 0.20644917 0.88492918
-0.21704522 0.20877886 0.88457972
-0.21466313 0.21121876 0.88469982
-0.20745011 0.21124077 0.88479203
-0.21712512 0.21367995 0.8849054
-0.21462232 0.21358968 0.88453162
-0.20743412 0.21845934 0.88472384
-0.20985536 0.22329283 0.88476443
-0.18343684 0.13413972 0.8852976
-0.24389315 0.13662395 0.88575816
-0.24151799 0.14147581 0.88590223
-0.18341231 0.14377321 0.88517922
-0.1908197 0.15597549 0.88596296
-0.18835925 0.16076668 0.88574922
-0.18591626 0.16074197 0.88561308
-0.23649347 0.16307491 0.8851729
-0.18822879 0.16306807 0.88513571
-0.23417541 0.16555476 0.88553131
-0.19076273 0.16558602 0.8856985
-0.1907808 0.16801621 0.88578242
-0.23182222 0.17042696 0.88576293
-0.190717 0.1727874 0.88548613
-0.19323449 0.17529525 0.88596207
-0.19074321 0.17763919 0.88560784
-0.19551374 0.18000026 0.88534737
-0.22935346 0.18245599 0.88555324
-0.19321248 0.18251944 0.88586116
-0.19547662 0.18720467 0.88517934
-0.22942002 0.18975268 0.88581026
-0.19796625 0.18969108 0.88552272
-0.22444905 0.19445896 0.88525093
-0.21723492 0.19689471 0.88535291
-0.21478894 0.19686477 0.88521832
-0.22460534 0.19942382 0.8858673
-0.22200309 0.19925553 0.88511968
-0.21715346 0.19923328 0.88502085
-0.21719265 0.20409496 0.88518059
-0.20514233 0.21134795 0.88524097
-0.2100991 0.2187231 0.88579208
-0.20511694 0.21855997 0.88513136
-0.21487716 0.22349913 0.88558191
-0.21249367 0.22594547 0.88570887
-0.1861169 0.13433234 0.88656884
-0.17875226 0.1342462 0.88600028
-0.18128902 0.13675307 0.88659531
-0.18136907 0.13923123 0.88698679
-0.1813477 0.14404982 0.88688225
-0.18366589 0.14638817 0.88640296
-0.18614423 0.15127109 0.88669908
-0.18600063 0.15356952 0.886015
-0.18358867 0.15357217 0.88603032
-0.1885629 0.15610646 0.88670689
-0.23932491 0.15852651 0.88672388
-0.18376195 0.15855204 0.88686663
-0.23690011 0.16093832 0.88669491
-0.19326738 0.17049429 0.88611287
-0.2343381 0.17291626 0.88614655
-0.19581304 0.18510984 0.88670272
-0.2296415 0.18751894 0.88666534
-0.2248034 0.19234909 0.88664848
-0.19572456 0.19227394 0.88630205
-0.22241783 0.19721057 0.88677323
-0.21982619 0.19705421 0.88607013
-0.21995541 0.19958675 0.88659102
-0.1957738 0.19957189 0.88652503
-0.21502626 0.20191354 0.88619637
-0.20054203 0.20192315 0.88623857
-0.1957707 0.2044017 0.88651097
-0.21751899 0.2068181 0.88651061
-0.22243178 0.2093097 0.88682884
-0.22001441 0.20930968 0.88682878
-0.20061165 0.209243 0.88654625
-0.21755357 0.21168473 0.88665158
-0.22003786 0.21416722 0.88692331
-0.20300135 0.21404782 0.88642883
-0.2127227 0.2165214 0.88666356
-0.21016747 0.21637897 0.88608032
-0.20775528 0.21638222 0.88609362
-0.2054936 0.21654417 0.88675678
-0.21256879 0.21877988 0.88602197
-0.2126694 0.22129972 0.88644135
-0.21034357 0.22139494 0.88682276
-0.20782633 0.22370477 0.88639671
-0.20547418 0.22377449 0.88667297
-0.24439794 0.13932614 0.88759142
-0.18393853 0.14176592 0.88771886
-0.24198848 0.14901002 0.88762802
-0.2394564 0.15135843 0.88721102
-0.18392853 0.15143682 0.88767058
-0.23959081 0.15628289 0.88770902
-0.23711982 0.16834527 0.88751727
-0.19122234 0.17082515 0.88783246
-0.19110012 0.17555304 0.88726497
-0.23458971 0.17793809 0.88709795
-0.19359902 0.18046503 0.88763338
-0.19111153 0.18281959 0.88731796
-0.19358869 0.18771367 0.88758606
-0.19602807 0.19015244 0.88767642
-0.2273158 0.19484785 0.8870213
-0.1983294 0.19729371 0.88714713
-0.22751272 0.19985658 0.88778967
-0.21769615 0.20214963 0.8872326
-0.19837649 0.20217815 0.88735777
-0.22018197 0.20463072 0.88750422
-0.20074172 0.20696053 0.88712108
-0.22489484 0.20935224 0.88700908
-0.20324072 0.21188112 0.88747412
-0.22249807 0.21420823 0.88709319
-0.21539482 0.21677825 0.8877154
-0.21780697 0.21919034 0.88768429
-0.21522361 0.21902378 0.88700974
-0.20318185 0.21907496 0.88721704
-0.21537195 0.22159426 0.8876211
-0.20811699 0.22159806 0.88763636
-0.20314252 0.22386846 0.88704532
-0.21780345 0.2240261 0.88766992
-0.23489253 0.13458602 0.88824308
-0.18888505 0.1345828 0.8882218
-0.17692183 0.13469131 0.88893795
-0.17932709 0.13710076 0.88884944
-0.24219733 0.14671701 0.88839412
-0.18158491 0.14907958 0.88804233
-0.18419172 0.15649973 0.88894075
-0.23989405 0.16374913 0.88883257
-0.23737894 0.16610736 0.8884871
-0.18903627 0.1661907 0.88893288
-0.18901496 0.16859479 0.88883269
-0.2349162 0.17092137 0.88833255
-0.2350858 0.17589118 0.88897389
-0.23251966 0.18062653 0.88842773
-0.23248926 0.18544571 0.88831162
-0.2276188 0.19268647 0.88820362
-0.22515093 0.19748765 0.88801914
-0.19630454 0.19768986 0.88892841
-0.22290699 0.20248932 0.88872349
-0.22522593 0.20481765 0.88831496
-0.22273624 0.20475487 0.88804275
-0.19376761 0.20483871 0.88840634
-0.22053522 0.20738208 0.88892806
-0.19868752 0.20734033 0.88874906
-0.19852039 0.20958646 0.88800144
-0.22295378 0.21222393 0.88891006
-0.22044997 0.21214619 0.88858443
-0.22522236 0.21449986 0.8883009
-0.21797353 0.21693642 0.88836312
-0.20356898 0.21706936 0.88890749
-0.22770928 0.21940577 0.88855672
-0.22520098 0.21932177 0.88821656
-0.22273333 0.21927598 0.88803113
-0.22045554 0.21941815 0.88860691
-0.19630502 0.21949808 0.88893056
-0.20579162 0.22169954 0.88804281
-0.22296336 0.22434872 0.88894826
-0.20100999 0.22418679 0.88830662
-0.19151106 0.13472691 0.88917297
-0.17949417 0.13965362 0.88967764
-0.18198477 0.14212988 0.8899979
-0.18179914 0.14683194 0.88909006
-0.24263261 0.15425862 0.88999075
-0.18664636 0.15652616 0.8890909
-0.18911032 0.17352793 0.88928115
-0.18912631 0.17839108 0.88935632
-0.2353369 0.18093063 0.88992345
-0.19152692 0.18079302 0.88924658
-0.23286445 0.18331969 0.88974518
-0.1939563 0.1856461 0.8892715
-0.19155993 0.18809725 0.88939983
-0.23278148 0.19052768 0.88942814
-0.19637662 0.19533849 0.88925481
-0.19389723 0.20012921 0.88900071
-0.22548394 0.20262811 0.88933259
-0.22059572 0.20259149 0.8891719
-0.19641291 0.20264781 0.88941908
-0.22788517 0.2098795 0.88924307
-0.19636679 0.20987177 0.88921028
-0.19408846 0.21002923 0.88987744
-0.22553064 0.21236879 0.88951677
-0.20119585 0.21469958 0.88912797
-0.22073618 0.21727219 0.88973808
-0.20120336 0.21955502 0.88916117
-0.19893801 0.21972993 0.88986951
-0.20363259 0.22198474 0.88918525
-0.21823266 0.22204314 0.8894192
-0.2206762 0.22448704 0.88949633
-0.19895673 0.22460236 0.88995326
-0.18217871 0.15199567 0.89094633
-0.18200985 0.15428111 0.89012051
-0.24028921 0.16159207 0.8902967
-0.18455595 0.16166501 0.89069855
-0.18444739 0.1639964 0.89017469
-0.18704014 0.16657093 0.89096671
-0.18938911 0.17135613 0.8905921
-0.23783578 0.17370665 0.89019704
-0.18699506 0.17381492 0.89075196
-0.18944879 0.183552 0.89087272
-0.19184867 0.18595277 0.89074045
-0.23318832 0.18843199 0.89098263
-0.2306748 0.19321828 0.89065504
-0.23065317 0.19562772 0.89057153
-0.22813942 0.19798048 0.89023519
-0.22590268 0.20786175 0.89098412
-0.2234661 0.20785441 0.89095265
-0.19657879 0.20767188 0.89017028
-0.20143266 0.2125258 0.89017445
-0.22810613 0.21493557 0.89010525
-0.19903272 0.21498094 0.89029318
-0.19661802 0.21499418 0.89034796
-0.22338167 0.21748659 0.89061606
-0.20151207 0.21746445 0.8905254
-0.2014887 0.22229353 0.89042211
-0.22809665 0.22463138 0.89006829
-0.22574009 0.22470069 0.89034289
-0.17980316 0.14475262 0.89120919
-0.2430384 0.15208657 0.89147919
-0.18229523 0.15938328 0.89151621
-0.24072191 0.16917658 0.89189988
-0.18707217 0.16902852 0.8911193
-0.23828425 0.17160307 0.89187557
-0.18952873 0.17634125 0.89124864
-0.19435549 0.19088618 0.89110172
-0.19440034 0.19335979 0.89130735
-0.19444798 0.19826749 0.8915258
-0.19451846 0.20320144 0.89184898
-0.22844432 0.20553471 0.89142495
-0.19210602 0.20565239 0.89193535
-0.19452761 0.2080733 0.89189094
-0.22852336 0.21289799 0.89173335
-0.19442174 0.21524955 0.89140552
-0.22607526 0.21774271 0.89166486
-0.1993687 0.21777473 0.89179599
-0.19691242 0.21774666 0.89168108
-0.19436659 0.22004676 0.89115262
-0.22843848 0.2225382 0.89140218
-0.22602902 0.22255825 0.89148247
-0.22348472 0.22244452 0.89102691
-0.22106302 0.22245164 0.89105546
-0.19927935 0.22253674 0.89139634
-0.19678277 0.22246125 0.89109397
-0.1967736 0.22487976 0.89105242
-0.17765026 0.13767894 0.89259791
-0.18003434 0.14250632 0.89235502
-0.18253018 0.15715544 0.89266521
-0.24098337 0.1669265 0.89286858
-0.23855618 0.17910056 0.89289337
-0.18978694 0.18144692 0.89246291
-0.23370704 0.19615339 0.8929646
-0.23109312 0.20086522 0.89227021
-0.22863233 0.20327199 0.89215857
-0.19949161 0.2130442 0.89234579
-0.23123571 0.22045866 0.89282078
-0.19473426 0.22289674 0.89283836
-0.17546082 0.13543393 0.89383906
-0.17780042 0.14023045 0.89335233
-0.18035817 0.14763622 0.89396012
-0.18021831 0.14995664 0.89326692
-0.18034022 0.15493119 0.89387113
-0.24357228 0.15972677 0.8934375
-0.18758896 0.17193122 0.89358103
-0.18747123 0.17912599 0.89302021
-0.23635221 0.18658371 0.89376283
-0.19001131 0.1889682 0.89351797
-0.19242629 0.19138329 0.89342231
-0.23391852 0.19389461 0.8937726
-0.19249676 0.19388959 0.89374948
-0.19488207 0.19627453 0.89351606
-0.23384881 0.20114349 0.89350629
-0.19238231 0.20107862 0.8932181
-0.23148306 0.20607674 0.89377576
-0.2290401 0.20850696 0.89374977
-0.23150529 0.21096958 0.89386165
-0.1924455 0.21088694 0.89351147
-0.19735169 0.21336041 0.89367026
-0.19480164 0.21323557 0.89314735
-0.19234361 0.21564384 0.89303839
-0.22888602 0.21810502 0.89314854
-0.19492061 0.21823792 0.89369279
-0.17796174 0.13304564 0.89416289
-0.17804603 0.14530116 0.89458644
-0.24375428 0.15740892 0.89410508
-0.18283528 0.16229278 0.89415729
-0.18299522 0.16487421 0.89493948
-0.18526864 0.16960113 0.89413816
-0.18527785 0.17448436 0.89418256
-0.23893158 0.17694469 0.89429849
-0.18773501 0.17694037 0.89427668
-0.23657076 0.18431775 0.8945893
-0.18775585 0.18427381 0.89437604
-0.19025587 0.18677269 0.89466798
-0.23164062 0.19890317 0.89438415
-0.19273709 0.19901016 0.89486527
-0.19024904 0.20139779 0.89463592
-0.23171327 0.20384297 0.89466465
-0.19270949 0.21361513 0.89473718
-0.23164149 0.21596961 0.89438748
-0.19270444 0.22092608 0.8947137
-0.23156267 0.22320752 0.8940832
-0.18073626 0.13329431 0.89583415
-0.18062937 0.15273915 0.89530438
-0.18075965 0.16017596 0.89595014
-0.24423432 0.16504489 0.89586592
-0.18562703 0.16748723 0.89586782
-0.18806955 0.18213969 0.89587033
-0.23682697 0.1918408 0.89555812
-0.19295374 0.19679186 0.89587116
-0.19285659 0.20889665 0.89542013
-0.19048309 0.21141209 0.89573652
-0.23201111 0.21387239 0.89581466
-0.190488 0.21630093 0.89575958
-0.19294871 0.21876419 0.89584786
-0.1783369 0.14309606 0.89604795
-0.18080471 0.15777306 0.89617348
-0.2444289 0.16273244 0.89657962
-0.24191172 0.17245595 0.89630824
-0.18577762 0.17251104 0.89659458
-0.24185213 0.17485607 0.89608747
-0.18565585 0.17972508 0.89600688
-0.23942924 0.18219882 0.8961612
-0.18826665 0.18966424 0.89680922
-0.19067948 0.19207683 0.89665997
-0.1907263 0.19456875 0.89688015
-0.19069219 0.19942258 0.89671975
-0.23717912 0.20190516 0.89688975
-0.19315082 0.20432636 0.89678621
-0.2345468 0.2066295 0.89617318
-0.23216423 0.20912662 0.89640588
-0.19069433 0.21409087 0.89672983
-0.23217162 0.21890742 0.89643443
-0.19299157 0.22369772 0.89604682
-0.17609599 0.13347891 0.89707476
-0.17609996 0.13837259 0.89709496
-0.17615572 0.14086252 0.89737904
-0.18842839 0.18738052 0.89757961
-0.23723328 0.18972461 0.89709461
-0.23744218 0.19723414 0.89788455
-0.23477888 0.19949825 0.89705998
-0.23477177 0.20438254 0.8970328
-0.19094865 0.2070336 0.89792579
-0.19086565 0.21917629 0.89753544
-0.2349128 0.22163177 0.89757162
-0.19081391 0.22156276 0.8972922
-0.1788151 0.14837781 0.89845055
-0.17879824 0.15081264 0.89836591
-0.18368199 0.17039022 0.8982982
-0.18371661 0.17532048 0.89846742
-0.18609311 0.17770025 0.89811718
-0.18627459 0.18522507 0.89899302
-0.1886761 0.19252661 0.8987596
-0.19112702 0.20477711 0.89876455
-0.23526274 0.21706136 0.89890873
-0.18396227 0.13386489 0.89966887
-0.18156478 0.16334251 0.89994079
-0.24268775 0.18036227 0.89918351
-0.18633965 0.1828384 0.89930701
-0.24044639 0.18787917 0.89996827
-0.23785724 0.19512713 0.89945406
-0.18881787 0.195123 0.89943498
-0.1912683 0.19757336 0.89942884
-0.18874437 0.20239931 0.89908481
-0.23795764 0.20747352 0.89983374
-0.23533823 0.21222888 0.89919716
-0.17425068 0.13639382 0.9001742
-0.17686301 0.14388405 0.9009822
-0.17678694 0.14627703 0.90059465
-0.17923054 0.15608673 0.90053797
-0.18174222 0.16595761 0.90082026
-0.18411151 0.16833431 0.90039873
-0.18420297 0.17332904 0.900846
-0.18423271 0.1807249 0.90099144
-0.24061224 0.18555391 0.90058905
-0.23802549 0.20507917 0.90009028
-0.18898182 0.21983084 0.90021586
-0.18905163 0.22236681 0.90054846
-0.17441833 0.14143723 0.90104032
-0.15725757 0.14146592 0.901223
-0.15481353 0.14147738 0.90129602
-0.17951126 0.15387264 0.90194845
-0.17944087 0.1611851 0.90159476
-0.24317901 0.18318334 0.90100366
-0.18678755 0.19064966 0.90146863
-0.24098805 0.19321981 0.90199566
-0.2383467 0.2004423 0.90130496
-0.18927866 0.20051457 0.90162992
-0.18933652 0.2079512 0.90190554
-0.23585896 0.21024199 0.90118682
-0.19172524 0.21033317 0.90157765
-0.23583265 0.21513095 0.90108627
-0.2358415 0.22005165 0.90112007
-0.17469978 0.1342853 0.90249425
-0.17467222 0.13918345 0.90235186
-0.17228994 0.14170675 0.90275735
-0.17470111 0.14658669 0.90250111
-0.17964722 0.15891004 0.90263158
-0.18700446 0.18841095 0.90251553
-0.24104136 0.19818103 0.90219522
-0.24111009 0.20315742 0.90245247
-0.18940116 0.21294078 0.90221345
-0.17491181 0.13198523 0.90358961
-0.15763444 0.13934244 0.90338272
-0.15511182 0.13928844 0.9030326
-0.15273844 0.14183182 0.90355402
-0.17491239 0.14430091 0.90359259
-0.17987454 0.16650173 0.90377373
-0.18223339 0.17133039 0.90325481
-0.18470541 0.17872635 0.90330321
-0.24135929 0.191055 0.90338522
-0.18711217 0.19344252 0.90303534
-0.18712805 0.19592069 0.90311199
-0.18959123 0.19838393 0.90311885
-0.18726888 0.20345891 0.90379167
-0.18963388 0.20581548 0.90332198
-0.1895902 0.21807681 0.90311396
-0.17761467 0.13216369 0.90481132
-0.17013106 0.14195865 0.90436208
-0.16030684 0.14199087 0.9045673
-0.16775987 0.14203821 0.9048689
-0.17260233 0.14442892 0.90439415
-0.17262156 0.14691052 0.90449494
-0.17757148 0.14939193 0.90459126
-0.17751245 0.15180723 0.90429056
-0.17755434 0.15677413 0.90450394
-0.17763643 0.16177996 0.90492213
-0.17992903 0.16408789 0.90404755
-0.18258016 0.1691896 0.90497363
-0.18249093 0.17650375 0.90453136
-0.18488896 0.18383338 0.90420085
-0.18487315 0.18628214 0.90412354
-0.18990923 0.21104611 0.90463364
-0.23908442 0.21338478 0.90409464
-0.18984595 0.21590592 0.90433222
-0.2390676 0.21829826 0.90403104
-0.17286393 0.13230298 0.90576494
-0.17290531 0.13727377 0.90598178
-0.15808132 0.13726802 0.90594381
-0.15551725 0.13718456 0.90539294
-0.16047545 0.13967191 0.90551871
-0.1530223 0.13962789 0.90523332
-0.16295102 0.14214656 0.90555918
-0.17042965 0.14467727 0.90594929
-0.18271819 0.17425486 0.90565777
-0.24187821 0.1964013 0.90532744
-0.241926 0.20137663 0.90550631
-0.18755203 0.20129922 0.90515822
-0.23954432 0.21132608 0.90583372
-0.23957026 0.21628782 0.90593183
-0.15320592 0.13732494 0.9063195
-0.1729683 0.13979425 0.90631181
-0.16316365 0.13986041 0.90674078
-0.16557732 0.14228223 0.90642351
-0.15077618 0.14230436 0.90656447
-0.17052226 0.14722671 0.90644163
-0.17546174 0.14969568 0.90643048
-0.17551802 0.15221527 0.90672123
-0.17802104 0.15965822 0.90688145
-0.18285403 0.18179595 0.90633106
-0.18782926 0.1991258 0.90649611
-0.18786074 0.20904469 0.9066481
-0.23982744 0.22146416 0.90690434
-0.18064654 0.13257872 0.90765262
-0.17816569 0.1548399 0.90761828
-0.17575032 0.16231614 0.90792125
-0.17324902 0.16229136 0.90778267
-0.17822559 0.16479139 0.90792346
-0.17805682 0.16710785 0.90706372
-0.18310207 0.17956869 0.90756047
-0.18558338 0.18947175 0.90759689
-0.18559428 0.19195698 0.90765017
-0.24238931 0.20670828 0.90724045
-0.18803641 0.20676647 0.90749586
-0.24244575 0.20922998 0.90745169
-0.18801276 0.21416061 0.90738177
-0.17333467 0.13513896 0.9082315
-0.16100605 0.13765727 0.90851277
-0.17092305 0.14014289 0.90857214
-0.16844441 0.1401412 0.90856117
-0.16597852 0.14015023 0.90861976
-0.15112895 0.14016038 0.90868551
-0.14863822 0.14262407 0.90860116
-0.16838531 0.14504349 0.90824246
-0.17579138 0.15740322 0.90813345
-0.18086351 0.16989426 0.90874279
-0.18580502 0.19712879 0.90868086
-0.18824065 0.21937293 0.90848154
-0.15127456 0.1378161 0.90956104
-0.17362121 0.15024108 0.90973288
-0.17358987 0.15765198 0.90956867
-0.18094841 0.17245226 0.90916932
-0.18343639 0.18485333 0.9092176
-0.1859486 0.19480228 0.909383
-0.18854709 0.21228884 0.90996051
-0.18847527 0.21716689 0.90961385
-0.17127198 0.13794731 0.91042691
-0.1638068 0.13793033 0.91031492
-0.14646932 0.14292443 0.91051465
-0.17379449 0.15287328 0.91064084
-0.17626807 0.1553479 0.91059595
-0.17624208 0.16028854 0.91046172
-0.17374443 0.16027389 0.91037852
-0.17618689 0.16768132 0.91017658
-0.18120301 0.17765838 0.91044855
-0.1836073 0.18750624 0.9100647
-0.18618928 0.20250055 0.91056007
-0.24326815 0.21986754 0.91052985
-0.15162598 0.1455915 0.91167402
-0.14912951 0.14558038 0.9116044
-0.14905468 0.14799096 0.91114694
-0.14655365 0.1479734 0.91103888
-0.14415884 0.15303409 0.9115988
-0.17636755 0.16536973 0.91110986
-0.17390051 0.16538544 0.91119641
-0.17404608 0.16800973 0.91195911
-0.1863102 0.20014842 0.91115147
-0.24354723 0.21515016 0.91157442
-0.17173508 0.13334352 0.91288859
-0.16924147 0.13831602 0.91286039
-0.14921726 0.14069335 0.91214085
-0.1666588 0.14569846 0.91234386
-0.1467485 0.1456835 0.91225016
-0.16920133 0.1482341 0.91264391
-0.17158057 0.15062658 0.91206723
-0.17159556 0.16307159 0.91214693
-0.17913759 0.17060968 0.9125694
-0.1816927 0.17565006 0.91290903
-0.18652983 0.21033068 0.91222554
-0.18667169 0.21546757 0.91291928
-0.16683924 0.13838743 0.91333163
-0.1543982 0.14586277 0.9133727
-0.14445542 0.14836895 0.9134742
-0.17193174 0.15342611 0.91393399
-0.14697003 0.15337463 0.91362727
-0.17425135 0.15576394 0.91303462
-0.1718743 0.15835567 0.91362858
-0.17193455 0.16588502 0.91394883
-0.17187494 0.16831793 0.91363204
-0.18184586 0.1807792 0.91367853
-0.18189016 0.1833144 0.91390115
-0.16686447 0.18820781 0.91346973
-0.18440023 0.19080742 0.91399491
-0.18681221 0.2056684 0.91360652
-0.18682043 0.20816791 0.91364676
-0.24402 0.21805744 0.91334397
-0.18687984 0.21819909 0.91393727
-0.18676324 0.22055264 0.91336703
-0.14957836 0.13854145 0.91434813
-0.15206097 0.14850138 0.91428947
-0.14457506 0.15098388 0.91423076
-0.14708744 0.15100476 0.91435713
-0.17195317 0.16091989 0.9140479
-0.17959206 0.17353633 0.91488457
-0.16453385 0.19337504 0.91435534
-0.18696475 0.21331348 0.91435254
-0.14721273 0.14115533 0.91513598
-0.16480744 0.14626248 0.91587567
-0.15720946 0.14616171 0.91524464
-0.16479132 0.19118135 0.91578615
-0.18463023 0.19353992 0.91513497
-0.18467763 0.19857991 0.91536987
-0.17234151 0.13631156 0.91611218
-0.14488834 0.14381874 0.9162119
-0.14490776 0.14633578 0.91633463
-0.14236446 0.15377995 0.91604173
-0.17234249 0.15628985 0.91611737
-0.14488794 0.15630554 0.91620928
-0.14500163 0.15892759 0.91692829
-0.17738852 0.17132288 0.91638422
-0.164992 0.18891485 0.91690141
-0.16735321 0.19125633 0.91614527
-0.16242871 0.19383717 0.91654044
-0.18495816 0.20387943 0.91676033
-0.15763867 0.13655427 0.91774344
-0.1500662 0.15149575 0.91733021
-0.1751671 0.17159373 0.91783297
-0.1725326 0.17146192 0.91712797
-0.17263635 0.17406645 0.91767937
-0.18014769 0.17907633 0.91771513
-0.17001817 0.18394595 0.91704977
-0.18268399 0.18661645 0.91788971
-0.18511285 0.19654685 0.91752708
-0.18505198 0.20148264 0.91722536
-0.1603101 0.13669908 0.91871667
-0.15528849 0.13668758 0.91863936
-0.14282015 0.15176721 0.91897386
-0.15033792 0.15427509 0.91899121
-0.17787524 0.17429772 0.91889858
-0.17036104 0.17429784 0.91889918
-0.18039934 0.17682144 0.91899705
-0.17028627 0.17922868 0.91849589
-0.18275124 0.18918809 0.91822761
-0.1702062 0.18915439 0.918064
-0.16776177 0.19422661 0.91838187
-0.16295896 0.14684647 0.91953254
-0.16042304 0.14681955 0.91936392
-0.14291465 0.15688092 0.91958195
-0.17046441 0.16939101 0.91945672
-0.14292565 0.16942713 0.91965276
-0.14287789 0.17939445 0.91934544
-0.1680416 0.18452042 0.91991377
-0.1679512 0.18692735 0.91941887
-0.14796118 0.19452414 0.91978872
-0.1631844 0.13700975 0.92080462
-0.14804237 0.13944225 0.92029333
-0.14307685 0.14953053 0.92062569
-0.14801218 0.15697026 0.9201057
-0.14299406 0.1594761 0.92009288
-0.14563501 0.16213211 0.92093349
-0.17074901 0.16465285 0.92099178
-0.14553165 0.1645256 0.92027992
-0.14303625 0.16454069 0.92036438
-0.17057458 0.17200838 0.92005092
-0.17563629 0.17456192 0.92029142
-0.17315091 0.1796031 0.92041469
-0.1406198 0.17971125 0.92096895
-0.18073918 0.18217404 0.92072827
-0.14050612 0.18458275 0.92022449
-0.17059247 0.18707548 0.92014748
-0.1606701 0.19473372 0.92077976
-0.14555721 0.19466218 0.92044151
-0.16321838 0.19729002 0.92099631
-0.15815519 0.19723737 0.92075056
-0.15558238 0.19715756 0.92037797
-0.1530605 0.19714069 0.92029923
-0.15061125 0.1972184 0.92066199
-0.15816386 0.19975814 0.92080104
-0.15551962 0.1995858 0.92000663
-0.18567353 0.21219382 0.92030615
-0.17075706 0.16717122 0.92103523
-0.14316942 0.17222719 0.92122126
-0.17077371 0.17723088 0.92112505
-0.14324202 0.17733927 0.92168838
-0.17079307 0.18227322 0.92122948
-0.14324765 0.18488367 0.92172468
-0.16322002 0.19227096 0.92100555
-0.15077062 0.19491486 0.92163622
-0.16076906 0.19736512 0.9213469
-0.15319018 0.19981843 0.92107898
-0.18588173 0.20740892 0.92133814
-0.18600035 0.21005428 0.92192602
-0.18583153 0.21739586 0.92108929
-0.14334916 0.16238639 0.92237777
-0.14335528 0.16742206 0.92241722
-0.17355278 0.17750521 0.92255086
-0.14081676 0.18247691 0.92225897
-0.18113436 0.18508761 0.92274141
-0.14344436 0.19016939 0.92299032
-0.18355703 0.19253623 0.92227626
-0.15347266 0.19515622 0.92277747
-0.14834677 0.19754478 0.92218566
-0.1862071 0.21531941 0.9229508
-0.14850099 0.160005 0.92314434
-0.17115138 0.16252448 0.92316216
-0.14606109 0.17015944 0.92362785
-0.14610989 0.17525332 0.92393649
-0.14095259 0.17510386 0.92314857
-0.14350179 0.18269475 0.92335993
-0.17364775 0.18515065 0.92305571
-0.14611365 0.19288778 0.92396021
-0.14359213 0.19288382 0.9239412
-0.15857537 0.19524489 0.92319679
-0.15618095 0.1953976 0.92391884
-0.1661814 0.19782872 0.92351115
-0.15107474 0.20034261 0.92349523
-0.14612845 0.1677191 0.92405379
-0.16896737 0.18049428 0.92498171
-0.17400713 0.18301253 0.92496604
-0.14115186 0.18795098 0.92445368
-0.1613429 0.20058998 0.92463547
-0.14127624 0.17802806 0.92526823
-0.16912907 0.18319078 0.92586696
-0.16653688 0.18816099 0.92548662
-0.14386339 0.18820165 0.9256866
-0.14129458 0.19066347 0.9253884
-0.17155929 0.1931805 0.92536235
-0.1465465 0.17325097 0.92669737
-0.17941883 0.17833677 0.92687273
-0.14655304 0.18083712 0.92673868
-0.16423182 0.19093679 0.9267149
-0.14398278 0.19593394 0.92645484
-0.14658447 0.19856268 0.92693746
-0.14165749 0.17092167 0.92776519
-0.14164209 0.17343175 0.92766434
-0.16949576 0.17600024 0.92787427
-0.17695925 0.17840424 0.92722338
-0.14672382 0.17851877 0.92781866
-0.18215612 0.18866111 0.92794651
-0.16958298 0.17862135 0.92835176
-0.17967778 0.18112431 0.9282105
-0.14939566 0.19387853 0.92870599
-0.17732912 0.18130988 0.92916143
-0.14697412 0.19149031 0.92940146
-0.14951295 0.20163122 0.92943513
-0.16738412 0.18658267 0.93019491
-0.13951939 0.18661809 0.93037152
-0.17513514 0.18927422 0.93096215
-0.16232027 0.19419807 0.93023664
-0.14226659 0.1691168 0.93175441
-0.14223051 0.19446558 0.93151808
-0.13983434 0.18449759 0.93247175
-0.15305474 0.19531745 0.93559867
