# .PCD v0.7 - Point Cloud Data file format
VERSION 0.7
FIELDS x y z
SIZE 4 4 4
TYPE F F F
COUNT 1 1 1
WIDTH 890
HEIGHT 1
VIEWPOINT 0 0 0 1 0 0 0
POINTS 890
DATA ascii
-0.2099572 0.1542172 0.83709306
-0.21466064 0.15888429 0.83763891
-0.21011628 0.15890107 0.83772731
-0.21468286 0.17260177 0.83772564
-0.21473664 0.18863355 0.83793545
-0.21499975 0.14998777 0.83896214
-0.21041596 0.14998063 0.83892214
-0.2147674 0.15439451 0.83805549
-0.21252814 0.1544273 0.83823353
-0.21728669 0.15913534 0.83896244
-0.21270068 0.15912616 0.83891404
-0.21246901 0.16352136 0.83800036
-0.21729244 0.16828729 0.83898461
-0.21493202 0.16822979 0.83869791
-0.21256515 0.16816594 0.83837956
-0.21256214 0.17273405 0.83836764
-0.21269488 0.17512861 0.83889121
-0.21492967 0.18423085 0.83868867
-0.21271305 0.18429108 0.83896285
-0.21257658 0.18874367 0.83842462
-0.21280986 0.15005617 0.83934468
-0.21733485 0.15459584 0.83914834
-0.21063586 0.15700483 0.83979887
-0.21517226 0.1638404 0.83963531
-0.2104701 0.16374335 0.83913797
-0.21296908 0.16619585 0.83997267
-0.21055332 0.16838461 0.83946979
-0.21749692 0.17073475 0.83977413
-0.21507403 0.17520393 0.839252
-0.212947 0.17991498 0.83988553
-0.21747074 0.18444708 0.83967304
-0.21752295 0.18907009 0.83987463
-0.2152101 0.19362769 0.83978295
-0.21320437 0.1526265 0.84090066
-0.21080865 0.15255156 0.84048778
-0.21780095 0.15721968 0.84094799
-0.21548167 0.15719998 0.84084266
-0.21317627 0.1571901 0.84078979
-0.21547109 0.16177605 0.84080142
-0.21314323 0.16174875 0.8406595
-0.21778338 0.1640833 0.84088016
-0.21532038 0.17082404 0.8402133
-0.21311513 0.17089222 0.84054869
-0.21764593 0.17543304 0.84034944
-0.21533497 0.17999738 0.84027022
-0.21087337 0.18468273 0.84074581
-0.21526642 0.18680923 0.84000278
-0.21298634 0.18681768 0.84004074
-0.21779384 0.18701334 0.84092057
-0.21997519 0.18921019 0.84049696
-0.21304607 0.19374144 0.84027636
-0.20870191 0.15039334 0.84123063
-0.21562979 0.15272088 0.84142065
-0.20875581 0.15501948 0.84144789
-0.22027364 0.15964271 0.84163731
-0.20874599 0.15959927 0.84140831
-0.21099909 0.16186179 0.84124702
-0.21112694 0.16654885 0.84175676
-0.22019419 0.1687585 0.84133375
-0.21787819 0.17332715 0.84124625
-0.21096113 0.17329614 0.84109575
-0.21338534 0.17799123 0.84161443
-0.21569632 0.17800514 0.84168029
-0.21801798 0.18032207 0.84178597
-0.21573617 0.18262744 0.84183574
-0.2201165 0.18474667 0.84103686
-0.21106617 0.18943927 0.84151453
-0.2156833 0.19175927 0.84162945
-0.21347034 0.19183224 0.8419497
-0.21797159 0.19404821 0.84160686
-0.21810211 0.15055069 0.84211081
-0.21830571 0.15298884 0.84289694
-0.22054812 0.15524758 0.84268606
-0.21807572 0.16200839 0.84200895
-0.22052051 0.16441511 0.84258056
-0.21807827 0.1666007 0.84201878
-0.21585569 0.16665676 0.84230214
-0.22037201 0.17118996 0.84201312
-0.21135917 0.1713261 0.84268272
-0.22059576 0.17595883 0.84286809
-0.21143119 0.17598008 0.84296983
-0.21829322 0.17825226 0.84284872
-0.2205817 0.18054236 0.84281433
-0.2111955 0.18037437 0.84203011
-0.21825475 0.18281497 0.84270012
-0.21353988 0.18271168 0.842224
-0.22049077 0.18735723 0.84246689
-0.2113921 0.18743442 0.84281403
-0.21368667 0.19662134 0.84280294
-0.21349895 0.19874394 0.84206253
-0.21629061 0.1485877 0.84399927
-0.21384116 0.14848435 0.84341222
-0.21167438 0.14857717 0.84393942
-0.20922464 0.15306883 0.84333766
-0.20926751 0.15769874 0.84351045
-0.20923449 0.16457058 0.84337735
-0.22074926 0.17378215 0.8434546
-0.21164757 0.18306063 0.84383255
-0.21841666 0.19214568 0.84332532
-0.22066462 0.19439968 0.84313118
-0.21156967 0.19448978 0.84352195
-0.20950457 0.14866987 0.84446597
-0.22104108 0.15789676 0.84456962
-0.22107315 0.16252464 0.84469211
-0.20956737 0.16252984 0.84471911
-0.22094963 0.16703627 0.84422016
-0.21192533 0.17869453 0.84493995
-0.22097728 0.18316764 0.84432578
-0.22344114 0.19021034 0.84493977
-0.22092766 0.19233042 0.84413618
-0.21189515 0.19248615 0.84481966
-0.21633646 0.19694218 0.8441782
-0.2164441 0.19934241 0.84459823
-0.21425202 0.14646623 0.84503275
-0.21199965 0.1465015 0.8452363
-0.20980014 0.14657448 0.84565735
-0.20965043 0.1695047 0.84505391
-0.22120464 0.17874837 0.84519452
-0.22358403 0.18572269 0.84548008
-0.21894272 0.19721706 0.84535646
-0.2119747 0.19716582 0.84513676
-0.21194237 0.19943911 0.8450079
-0.21681704 0.14664315 0.84605348
-0.20996234 0.16744998 0.84631115
-0.22381544 0.17207275 0.8463552
-0.22390442 0.18137294 0.84669167
-0.22384878 0.18824999 0.84648126
-0.21941 0.14914428 0.8471607
-0.20784386 0.15143891 0.8470791
-0.22186024 0.15386052 0.84769952
-0.22412984 0.176935 0.84754407
-0.21946669 0.19999887 0.84737957
-0.22202758 0.15166414 0.8483389
-0.22429034 0.17012593 0.84815103
-0.21052679 0.17252636 0.84858632
-0.21043447 0.1747628 0.84821421
-0.21061818 0.18648593 0.84895468
-0.22437508 0.19331819 0.84847146
-0.2242566 0.19552769 0.84802347
-0.22203073 0.19791564 0.84835088
-0.20843217 0.14723648 0.84947675
-0.20844057 0.15650494 0.84951103
-0.22470823 0.16581045 0.84973127
-0.22463068 0.17501496 0.84943801
-0.22473377 0.17972825 0.84982783
-0.22452047 0.18418626 0.84902126
-0.21077503 0.19125649 0.8495869
-0.22036631 0.14747503 0.85085309
-0.20859587 0.14966948 0.85014397
-0.2087366 0.15440829 0.85071748
-0.22499682 0.16138498 0.85082257
-0.20864646 0.16129537 0.85035014
-0.22490533 0.16827413 0.85047656
-0.21099615 0.18218407 0.85047823
-0.21106108 0.18919706 0.8507399
-0.21103227 0.19612724 0.85062379
-0.21103452 0.19844802 0.85063285
-0.22296473 0.2010704 0.85191959
-0.21136267 0.20107891 0.85195559
-0.21149538 0.14543509 0.85249048
-0.20919679 0.15939678 0.85259306
-0.2092187 0.16638629 0.85268229
-0.21139823 0.17788588 0.85209888
-0.21161774 0.18039569 0.85298371
-0.21139826 0.18485396 0.852099
-0.21144785 0.19419025 0.85229892
-0.21415392 0.1456628 0.85382527
-0.20936792 0.16417904 0.8532905
-0.21670218 0.14581142 0.85469639
-0.20957483 0.17132598 0.85413378
-0.20981991 0.14588583 0.85513258
-0.20990612 0.1692649 0.85548395
-0.21258067 0.14384571 0.85686505
-0.21026956 0.17656581 0.85696512
-0.21019451 0.18817838 0.85665929
-0.21041954 0.14396513 0.85757643
-0.2196231 0.14620496 0.85700321
-0.20808874 0.15332063 0.8576045
-0.21033111 0.17428087 0.857216
-0.2104349 0.19306916 0.85763901
-0.21544659 0.14420059 0.85897911
-0.20838973 0.14886025 0.858845
-0.20866442 0.15140063 0.85997707
-0.20857513 0.15836531 0.85960907
-0.21077718 0.18401684 0.859034
-0.21097392 0.18653236 0.8598358
-0.21080901 0.19107045 0.8591637
-0.21089363 0.1981758 0.85950863
-0.20407826 0.1350591 0.86040777
-0.21824551 0.1445035 0.86078346
-0.20872112 0.15613136 0.86021078
-0.20871702 0.16316254 0.86019385
-0.20877713 0.16790038 0.86044163
-0.21107702 0.17958876 0.86025602
-0.21108891 0.19601426 0.86030447
-0.20659465 0.13517103 0.86112076
-0.20189375 0.13516676 0.8610937
-0.22552836 0.14935768 0.8617149
-0.20906514 0.16578335 0.86162859
-0.21136184 0.18217918 0.86141682
-0.21874082 0.13542472 0.862737
-0.21630114 0.13536966 0.86238617
-0.21397668 0.13538627 0.86249208
-0.21156099 0.13534489 0.86222845
-0.20919907 0.13533738 0.86218059
-0.19985263 0.1353741 0.86241454
-0.21156827 0.14005031 0.86225814
-0.20455663 0.14007735 0.86242461
-0.20926477 0.1447835 0.86245131
-0.2232787 0.14707415 0.8620981
-0.2092942 0.14715511 0.86257261
-0.20919637 0.16118714 0.86216944
-0.20927434 0.17300227 0.86249077
-0.20492293 0.13797314 0.86396897
-0.21430302 0.14030196 0.86380744
-0.20944716 0.14020379 0.86320305
-0.20705922 0.1401801 0.8630572
-0.20252648 0.1402995 0.86379236
-0.2119619 0.14266562 0.8638624
-0.22117274 0.14488402 0.8630501
-0.20946346 0.17080548 0.86327022
-0.2094778 0.17787705 0.86332929
-0.22146972 0.13565578 0.86420894
-0.19794609 0.13567862 0.86435443
-0.21202378 0.13799641 0.86411458
-0.20967038 0.13799775 0.86412299
-0.20739526 0.13805121 0.86445785
-0.20273909 0.13808976 0.86469918
-0.20024993 0.14035417 0.86412895
-0.21458758 0.14284599 0.86495447
-0.20738506 0.1451132 0.86441535
-0.20501988 0.1451069 0.86437774
-0.20043494 0.14519915 0.86492735
-0.20982647 0.17581593 0.8647663
-0.2098549 0.18998495 0.86488348
-0.20972393 0.1945785 0.8643437
-0.21472374 0.13821816 0.86550325
-0.20061311 0.13824898 0.86569619
-0.22186311 0.14061651 0.86574405
-0.19817325 0.14055192 0.86534643
-0.21001424 0.14294271 0.86554015
-0.20287199 0.14525601 0.86526603
-0.20765918 0.15474252 0.86555797
-0.20766832 0.15946828 0.865596
-0.20996656 0.18065087 0.86534363
-0.2244014 0.13600487 0.86643291
-0.19614308 0.13606228 0.86679864
-0.22212733 0.13842128 0.8667751
-0.21964833 0.13834801 0.86631632
-0.21736524 0.1383979 0.86662871
-0.22431336 0.14067318 0.86609298
-0.21974403 0.14077076 0.86669379
-0.21728025 0.14070515 0.86628985
-0.20789164 0.14310566 0.86652684
-0.20545958 0.14305688 0.86623156
-0.22443062 0.14547084 0.86654574
-0.20085269 0.15022694 0.86673009
-0.20799033 0.15735242 0.86693823
-0.20792438 0.16438968 0.86666334
-0.20798711 0.16916548 0.86692482
-0.20795266 0.17386287 0.86678123
-0.21028255 0.18564741 0.86664593
-0.21026427 0.19271767 0.86657059
-0.198596 0.13848792 0.86719239
-0.19630505 0.14090405 0.86751443
-0.22241975 0.1433351 0.86791617
-0.20334654 0.14323169 0.86728996
-0.20099139 0.14323807 0.86732858
-0.19867431 0.1456368 0.86753434
-0.20811632 0.15035403 0.86746335
-0.20341007 0.15037096 0.86756098
-0.20821005 0.16224991 0.86785406
-0.21059276 0.18355547 0.86792445
-0.21059544 0.18828951 0.86793548
-0.22731493 0.13633581 0.86854118
-0.22493464 0.13869542 0.86849177
-0.22735329 0.14109462 0.86868775
-0.22500588 0.14347559 0.86876684
-0.22030461 0.14349836 0.86890477
-0.21781981 0.14342178 0.86844105
-0.19892786 0.14345489 0.8686415
-0.19662273 0.14586915 0.86891836
-0.20843002 0.14821254 0.8687709
-0.20371072 0.14822488 0.86884326
-0.20133768 0.1482214 0.86882293
-0.19897045 0.15059046 0.86882746
-0.20137776 0.15535715 0.8689959
-0.20844893 0.16717274 0.86884975
-0.20835298 0.1718303 0.86844981
-0.20832978 0.17891215 0.86835313
-0.20847207 0.18377155 0.86894619
-0.21065088 0.19780497 0.86816394
-0.21064931 0.20016997 0.86815751
-0.23004775 0.13655265 0.86992258
-0.19429013 0.13642024 0.86907905
-0.19683596 0.13891403 0.86986065
-0.20855589 0.15304117 0.8692956
-0.20633607 0.15552358 0.86992687
-0.20612852 0.16010493 0.86905181
-0.20626926 0.16495529 0.86964524
-0.20871823 0.17687434 0.86997223
-0.19462803 0.14140368 0.87059051
-0.19691035 0.14371052 0.87018943
-0.20658442 0.1509625 0.87097394
-0.2041086 0.15326028 0.8705402
-0.20163369 0.15318283 0.87010026
-0.20399559 0.15554707 0.87005824
-0.19933468 0.15561137 0.87041789
-0.20646288 0.1579919 0.87046152
-0.20416537 0.16042376 0.87078238
-0.20658225 0.16283147 0.87096477
-0.20651519 0.16989863 0.87068206
-0.20885111 0.18173277 0.87052608
-0.2088151 0.19119146 0.87037599
-0.20890096 0.19601703 0.87073386
-0.20422295 0.13435188 0.87102795
-0.20188896 0.1343787 0.87120187
-0.19958189 0.13442428 0.87149739
-0.23286434 0.13681428 0.87158936
-0.19249663 0.13682929 0.87168497
-0.22797205 0.13910426 0.87105191
-0.22812825 0.14395154 0.87164879
-0.22810857 0.14631489 0.87157357
-0.19490868 0.14636061 0.8718459
-0.22805247 0.14865409 0.87135917
-0.20660305 0.14860177 0.8710525
-0.19951558 0.14862828 0.87120783
-0.19715382 0.15101302 0.87126535
-0.19963323 0.15346827 0.87172157
-0.20444365 0.15826556 0.87196922
-0.20671912 0.17481777 0.8715418
-0.20899335 0.1866056 0.87111896
-0.20690067 0.13454922 0.8723073
-0.19744495 0.13458695 0.87255192
-0.19509584 0.13460717 0.87268305
-0.19031475 0.13696906 0.87257534
-0.19504684 0.13932976 0.87246394
-0.23069142 0.14169052 0.87235659
-0.19270654 0.14173582 0.87263548
-0.19509055 0.14411844 0.87265944
-0.19741203 0.14883275 0.87240642
-0.20697561 0.15362699 0.87262321
-0.20220324 0.15837243 0.87255806
-0.20221472 0.16076 0.87260753
-0.20462097 0.16553956 0.87272555
-0.20702963 0.1679426 0.87285095
-0.20698029 0.17979601 0.87264293
-0.20944127 0.18938518 0.87298602
-0.20927194 0.19398744 0.87228018
-0.22382586 0.13471822 0.87340301
-0.2214503 0.13472138 0.87342352
-0.20965028 0.13478827 0.87385714
-0.18819447 0.13715725 0.87377423
-0.23099105 0.13949357 0.87348968
-0.19283222 0.1465887 0.87320465
-0.20473588 0.17039302 0.87321562
-0.20246163 0.17048226 0.87367302
-0.20708482 0.17274715 0.87308365
-0.20710248 0.18466233 0.8731581
-0.21205306 0.20388612 0.87394285
-0.23350896 0.13481064 0.87400216
-0.23116089 0.13483065 0.87413192
-0.22887881 0.13488998 0.87451655
-0.22641855 0.13484444 0.87422132
-0.21931554 0.13487269 0.87440449
-0.19315195 0.13491094 0.87465245
-0.19066143 0.14198422 0.87416482
-0.19318871 0.14447509 0.87481892
-0.19556713 0.1492396 0.8747912
-0.23132241 0.15161572 0.87474269
-0.19547646 0.15155384 0.87438565
-0.19786142 0.15632193 0.87439239
-0.20029636 0.15874618 0.87461722
-0.20036617 0.1611864 0.87492204
-0.20494995 0.16342297 0.87412864
-0.20271787 0.16354452 0.87477881
-0.20258428 0.16581967 0.87420231
-0.20037909 0.170737 0.87497842
-0.20508386 0.17545122 0.87469983
-0.20751899 0.17787908 0.87491417
-0.20512503 0.18025598 0.87487543
-0.20738018 0.18252666 0.87432891
-0.20991766 0.19935606 0.87497169
-0.20985875 0.20168447 0.87472606
-0.21447419 0.20868841 0.87410134
-0.21724838 0.13506937 0.87567955
-0.19091867 0.13501765 0.87534428
-0.18864237 0.13509624 0.87585378
-0.23619874 0.13737179 0.87514102
-0.19323793 0.13974145 0.87504184
-0.1909613 0.13982096 0.87553972
-0.23391303 0.14220345 0.87551457
-0.23160063 0.14463624 0.87579477
-0.23147404 0.14694315 0.87531608
-0.19090877 0.14694028 0.87529892
-0.19340986 0.15180252 0.8758204
-0.19814734 0.15416092 0.87565595
-0.20052399 0.16608691 0.87561119
-0.20534691 0.16851421 0.87582177
-0.20283778 0.16841309 0.87529624
-0.20050929 0.16846134 0.87554699
-0.20530789 0.17325597 0.87565529
-0.20055883 0.18043891 0.8757633
-0.20532489 0.18520579 0.87572783
-0.2077522 0.18762919 0.87589735
-0.23657447 0.13520102 0.87653315
-0.18648152 0.1352606 0.87691933
-0.18644565 0.13762446 0.87675065
-0.23418491 0.13997945 0.87653214
-0.18886176 0.142424 0.87687242
-0.1912387 0.14480416 0.87681156
-0.18883015 0.1471798 0.87672567
-0.19345655 0.14945124 0.87603176
-0.20079443 0.16392091 0.87679207
-0.20322947 0.17590988 0.87698644
-0.20080592 0.17588095 0.87684226
-0.20301697 0.180502 0.87606949
-0.20543317 0.18291511 0.87618965
-0.20781542 0.19723943 0.8761639
-0.21255681 0.20675834 0.87601894
-0.18907401 0.14019115 0.87785786
-0.23449898 0.14734465 0.87770766
-0.19137214 0.15208037 0.87742341
-0.19611722 0.15683313 0.87725186
-0.1986704 0.16174746 0.87796742
-0.19853631 0.16642144 0.87737483
-0.20326734 0.17355169 0.87714988
-0.20105951 0.17370991 0.8779496
-0.20570369 0.17837298 0.87734342
-0.20330489 0.18314938 0.87731189
-0.20323759 0.18547939 0.87702149
-0.20106153 0.18567753 0.87795842
-0.20814838 0.19277121 0.87756765
-0.21764229 0.21183556 0.8772673
-0.2370235 0.14263913 0.8781969
-0.23476551 0.14511691 0.87870532
-0.18676828 0.14743868 0.87826777
-0.19158995 0.14985901 0.87842202
-0.19637728 0.15464668 0.87841511
-0.19642772 0.16187149 0.87864071
-0.19886434 0.17627856 0.87882453
-0.20361899 0.17864214 0.87866735
-0.20112813 0.17855714 0.87824923
-0.20120768 0.18341759 0.8785966
-0.20835328 0.20253885 0.87843156
-0.1845814 0.13562077 0.87925446
-0.23741074 0.14047442 0.87963164
-0.18697962 0.14281206 0.87926161
-0.18943296 0.1452522 0.87952447
-0.23252292 0.1500058 0.87928241
-0.18949564 0.15009674 0.87981546
-0.18933517 0.15236583 0.8790704
-0.19432224 0.15731584 0.87995189
-0.19179633 0.1572115 0.87936825
-0.19895153 0.15957975 0.87920982
-0.19660167 0.16680916 0.87941885
-0.19427696 0.16687137 0.87974685
-0.1991235 0.17171097 0.87996978
-0.19897419 0.18116964 0.87930995
-0.19912894 0.18610799 0.8799938
-0.20622331 0.18841371 0.87955964
-0.20858519 0.19077864 0.87940931
-0.19903068 0.19081125 0.87955964
-0.20630246 0.19328295 0.87989724
-0.20149706 0.19327481 0.87986022
-0.20853411 0.19552501 0.87919396
-0.20611364 0.19789857 0.87909192
-0.20856962 0.20035219 0.87934363
-0.20624442 0.20281971 0.8796497
-0.23996553 0.13576782 0.88020772
-0.23995638 0.13816185 0.88017416
-0.1847509 0.13814424 0.88006192
-0.18728143 0.14064199 0.88068086
-0.18727067 0.14543481 0.88063025
-0.18486053 0.14782752 0.88058412
-0.19435126 0.15494037 0.88008332
-0.19198479 0.15496659 0.88023227
-0.19685575 0.15982398 0.88055539
-0.1945034 0.16226418 0.88077223
-0.19917303 0.16455594 0.8801887
-0.19202058 0.16699459 0.88039643
-0.19926834 0.16943547 0.88060987
-0.20401818 0.18859157 0.88038993
-0.20171845 0.18868518 0.88082689
-0.20407018 0.19344047 0.88061434
-0.2039284 0.19810356 0.8800025
-0.20394918 0.20292173 0.8800922
-0.21122785 0.20540017 0.88043272
-0.23797236 0.13359651 0.8817125
-0.18511584 0.13360982 0.88180035
-0.18497662 0.14311668 0.88113713
-0.18258741 0.14312659 0.88119811
-0.23783204 0.14792968 0.88119262
-0.1874315 0.15276729 0.88138658
-0.18984915 0.15758489 0.88145685
-0.18735689 0.1575096 0.88103569
-0.1921694 0.16232064 0.88107872
-0.19708088 0.16481274 0.88156235
-0.19705088 0.17199555 0.88142818
-0.19468744 0.1720302 0.88160568
-0.19947755 0.17922504 0.8815344
-0.20670629 0.19125813 0.88161957
-0.2018386 0.19119999 0.88135159
-0.19699502 0.19116241 0.88117832
-0.19948766 0.19365239 0.8815791
-0.20187707 0.19844508 0.88151956
-0.20669688 0.2008616 0.88157946
-0.20432024 0.20088758 0.88169342
-0.20188674 0.20326059 0.88156182
-0.21140511 0.20797446 0.88117158
-0.21398698 0.21055345 0.88191319
-0.21620597 0.21277536 0.88115931
-0.24048267 0.13365594 0.88210464
-0.23571196 0.13367762 0.88224775
-0.18768024 0.13372436 0.88255626
-0.18279824 0.13367273 0.88221556
-0.18294819 0.13859588 0.88293922
-0.24064688 0.14337167 0.882707
-0.23812115 0.14570458 0.88226378
-0.1853258 0.14579321 0.88280046
-0.23590076 0.15063225 0.88295442
-0.18757045 0.15047623 0.88203996
-0.23582137 0.15298754 0.88265729
-0.19016919 0.15544376 0.88294268
-0.19498178 0.16025652 0.8829385
-0.19254455 0.16023117 0.88279879
-0.19012697 0.16262794 0.8827467
-0.19490492 0.16500495 0.88259047
-0.19257532 0.16507027 0.88293982
-0.18997966 0.16731066 0.88206273
-0.19725782 0.16977103 0.88235384
-0.19493948 0.16984667 0.88274699
-0.19244222 0.17217144 0.88232958
-0.19961368 0.17453824 0.88213599
-0.1973749 0.17709154 0.88287753
-0.19499083 0.177112 0.88297951
-0.19961925 0.18416162 0.8821606
-0.19730514 0.18665187 0.8825655
-0.1996333 0.18898417 0.88222271
-0.20445861 0.19140369 0.88229054
-0.20693989 0.19628602 0.88261592
-0.2094193 0.20598184 0.88292599
-0.20936367 0.20833319 0.88269144
-0.2069421 0.20831759 0.88262534
-0.20443113 0.21301989 0.88217193
-0.19030775 0.13388039 0.88358605
-0.18062851 0.13384691 0.88336509
-0.18306838 0.13627861 0.88351929
-0.24096432 0.1411515 0.88387138
-0.18549992 0.14111292 0.88362986
-0.18544151 0.15310788 0.88335162
-0.18795772 0.15560545 0.88386106
-0.18779972 0.16269636 0.88311809
-0.1927896 0.17007281 0.88392228
-0.19757845 0.17486511 0.88378805
-0.19277123 0.1772842 0.88383806
-0.20472489 0.1964692 0.8834396
-0.20238905 0.19653937 0.88375515
-0.20236762 0.201336 0.88366157
-0.19997717 0.20376334 0.88374233
-0.20723602 0.20620415 0.88387895
-0.20961086 0.213397 0.88373363
-0.20705912 0.21324989 0.88312441
-0.17852245 0.1340736 0.88486123
-0.18095595 0.13891409 0.88496643
-0.18331967 0.14128895 0.88473213
-0.18091643 0.14370726 0.88477314
-0.18330857 0.14610338 0.88467854
-0.18318562 0.14841527 0.88408518
-0.18561459 0.15084065 0.88417608
-0.18567121 0.15811925 0.88444579
-0.18814787 0.16058627 0.88475525
-0.18808588 0.16776609 0.88446379
-0.19058526 0.17266805 0.88487452
-0.19530378 0.17498553 0.88439667
-0.19764429 0.18215299 0.88408256
-0.19532874 0.18224098 0.88450968
-0.19776277 0.18467349 0.88461256
-0.197769 0.18950208 0.8846404
-0.19524641 0.19180423 0.88413686
-0.19771098 0.19426785 0.88438088
-0.20006676 0.1990346 0.88413829
-0.20489387 0.20868188 0.8841688
-0.21232046 0.2112873 0.88498694
-0.21456087 0.21352853 0.88427836
-0.21220176 0.21358016 0.88449216
-0.20247273 0.21349044 0.88412058
-0.21692917 0.22312684 0.88410676
-0.23406155 0.1341099 0.88510072
-0.19321267 0.13422525 0.88586205
-0.24393122 0.13664527 0.88589644
-0.24154127 0.14873464 0.88598764
-0.23899937 0.15348332 0.88551766
-0.19061615 0.16063395 0.88501793
-0.19064471 0.16548358 0.88515055
-0.19082764 0.17047255 0.88599986
-0.19310492 0.17517772 0.88536805
-0.19546683 0.17995708 0.88513499
-0.19794019 0.18001221 0.88540614
-0.19313224 0.18244363 0.88549328
-0.20034042 0.19689351 0.8853476
-0.20033666 0.20171638 0.88533103
-0.20510671 0.20648603 0.88508719
-0.20272413 0.20892958 0.88521832
-0.21007031 0.21145055 0.88567066
-0.20766754 0.21146218 0.88571942
-0.20526434 0.21147364 0.88576746
-0.22693968 0.21625035 0.8855536
-0.22459607 0.21631803 0.88583076
-0.21000151 0.2162081 0.88538063
-0.20765245 0.21627513 0.88565505
-0.20515925 0.21619181 0.88531393
-0.21006632 0.21868898 0.88565385
-0.20757413 0.2186068 0.88532102
-0.21956374 0.22335535 0.88501221
-0.21478266 0.22340083 0.88519239
-0.18130198 0.13676284 0.88665867
-0.24397308 0.13908394 0.88604844
-0.24174173 0.14644101 0.88672292
-0.23916213 0.15117241 0.88612074
-0.18373571 0.15369517 0.88673997
-0.18614985 0.15610978 0.88672578
-0.18604125 0.16326571 0.88620853
-0.18860142 0.16580841 0.88688803
-0.18617931 0.16822177 0.88686615
-0.19094412 0.17782632 0.88654071
-0.1932911 0.18017802 0.88622165
-0.1957738 0.18990578 0.88652498
-0.19821693 0.20443237 0.88664401
-0.20299949 0.20679714 0.88642073
-0.22224562 0.21638052 0.88608664
-0.21271163 0.21651012 0.88661736
-0.21751916 0.21890071 0.88651133
-0.21263796 0.21885107 0.88631034
-0.20532146 0.21877789 0.88601393
-0.20308179 0.21896707 0.88678008
-0.18138511 0.14166155 0.88706523
-0.18152072 0.14902687 0.88772839
-0.1838751 0.15864965 0.88741267
-0.18641666 0.16117461 0.88799673
-0.18870795 0.17315869 0.88738894
-0.19113293 0.18284006 0.88741732
-0.19593295 0.18764168 0.88724571
-0.19362627 0.18775009 0.88775831
-0.19353655 0.19250064 0.88734698
-0.19115838 0.19254152 0.88753551
-0.19600871 0.19497252 0.8875888
-0.19830239 0.19968474 0.88702631
-0.20081164 0.20703259 0.88743001
-0.20076728 0.20940532 0.88723397
-0.20314874 0.21178521 0.88707244
-0.20085534 0.21433622 0.88762319
-0.2177847 0.21674851 0.88759357
-0.21543479 0.21681847 0.88788009
-0.20316373 0.21663722 0.88713789
-0.22752488 0.21922807 0.88783711
-0.22264801 0.21919198 0.88769096
-0.2152297 0.21902998 0.88703483
-0.21764526 0.2214455 0.88702524
-0.1792817 0.13948831 0.88862449
-0.17933981 0.14437959 0.88891256
-0.18406278 0.15154736 0.88831848
-0.24218647 0.15397498 0.8883543
-0.18884943 0.17086783 0.88805431
-0.19133288 0.17576687 0.88834566
-0.19146058 0.18073039 0.88893855
-0.19624968 0.18552262 0.88867998
-0.19132985 0.18787134 0.88833159
-0.19852611 0.19748941 0.88802707
-0.19624494 0.20005217 0.88865852
-0.19860344 0.20240945 0.8883729
-0.19610749 0.20475334 0.88803607
-0.1986322 0.2097045 0.88850158
-0.20116536 0.21224378 0.8889932
-0.22043028 0.2169711 0.8885051
-0.22520162 0.2193224 0.88821912
-0.22043683 0.21939953 0.88853145
-0.22049943 0.2218845 0.88878375
-0.21547894 0.22170433 0.88806206
-0.21312951 0.2217785 0.88835913
-0.21072668 0.22179818 0.88843799
-0.20826827 0.22175914 0.88828158
-0.17698541 0.13473971 0.88925737
-0.17943458 0.13718295 0.8893823
-0.24486995 0.14201933 0.88930565
-0.18184547 0.14686936 0.88931662
-0.18434711 0.15663177 0.8896907
-0.1939377 0.18562831 0.88918626
-0.19404496 0.1905812 0.889678
-0.19644603 0.20268199 0.8895691
-0.19884861 0.20750841 0.88946956
-0.23042588 0.2172614 0.88969392
-0.20136711 0.21730801 0.88988477
-0.20125166 0.21960771 0.88937455
-0.22322324 0.22218424 0.88998437
-0.20609085 0.22202189 0.88933408
-0.20371538 0.22207499 0.88954675
-0.17969184 0.13252406 0.89065742
-0.24519596 0.14463575 0.89048964
-0.24268566 0.15186584 0.89018536
-0.18217003 0.15441689 0.89090389
-0.18450822 0.16405047 0.89046824
-0.18684065 0.16639328 0.89001644
-0.18698926 0.17138158 0.89072436
-0.18943711 0.17868423 0.89081782
-0.18939507 0.18349995 0.89062011
-0.19188106 0.18598416 0.89089084
-0.18926601 0.18822698 0.89001322
-0.1918302 0.19079041 0.89065468
-0.18932389 0.19313808 0.89028537
-0.1965729 0.19796011 0.89014363
-0.19426344 0.20050718 0.89067972
-0.19425364 0.20535251 0.89063478
-0.1966351 0.20773137 0.89042526
-0.19664083 0.21016467 0.89045125
-0.19917895 0.21271031 0.89094722
-0.19912097 0.21507625 0.89068788
-0.22810914 0.22221735 0.89011699
-0.22579752 0.22233029 0.89056939
-0.17976311 0.14229162 0.89101064
-0.18232639 0.15211888 0.89166856
-0.18467832 0.16177221 0.89128917
-0.18472241 0.1691011 0.89150196
-0.18708657 0.17389999 0.89118785
-0.18954505 0.17635643 0.89132541
-0.19446826 0.19585776 0.89161879
-0.23099099 0.22022533 0.89187586
-0.20166646 0.22248964 0.8912077
-0.17756477 0.13274887 0.89216834
-0.17755884 0.1376081 0.8921386
-0.18005288 0.14981899 0.89244694
-0.18990074 0.18155572 0.89299804
-0.18984264 0.18636702 0.89272481
-0.18978794 0.19117877 0.89246756
-0.19215344 0.19597566 0.89215547
-0.18987173 0.19856456 0.8928616
-0.19456151 0.20324641 0.89204633
-0.19469734 0.21068811 0.89266908
-0.19718108 0.21317595 0.89289761
-0.19718356 0.21561256 0.89290887
-0.19944897 0.2202943 0.89215511
-0.18268332 0.13293423 0.89341414
-0.17540053 0.13538738 0.89353192
-0.17787547 0.14028963 0.89372945
-0.18017562 0.14748679 0.89305532
-0.18747544 0.1839986 0.8930403
-0.19011235 0.19637932 0.89399308
-0.19479929 0.1986257 0.8931365
-0.19240886 0.20597658 0.89334136
-0.19486725 0.20843659 0.89344811
-0.1948614 0.2157363 0.89342129
-0.19981129 0.21825819 0.89377576
-0.1754948 0.13302322 0.89401215
-0.1828642 0.15988074 0.89429879
-0.18524855 0.16714573 0.89404118
-0.18779786 0.1794381 0.89457613
-0.18784083 0.19411333 0.89478081
-0.19256513 0.2012697 0.89406693
-0.19275464 0.2112257 0.89494681
-0.19512065 0.21358475 0.89460993
-0.19265644 0.21599458 0.8944909
-0.23420769 0.21852723 0.89487749
-0.1951621 0.22094738 0.89480001
-0.19260155 0.22080812 0.89423603
-0.18312886 0.1576709 0.89559311
-0.1830717 0.16494313 0.89531356
-0.18547192 0.17222717 0.89511919
-0.18553562 0.17472713 0.89542669
-0.18800755 0.18207964 0.89557499
-0.1879368 0.18933193 0.89523792
-0.19052146 0.20168617 0.89591694
-0.1976971 0.21861437 0.89523435
-0.19526936 0.21862838 0.89529175
-0.19284374 0.21864517 0.89536047
-0.19766818 0.22102229 0.89510339
-0.17595808 0.13826111 0.8963722
-0.17851432 0.14323841 0.89693934
-0.17834729 0.14554702 0.8961001
-0.1784749 0.1505399 0.89674133
-0.1809492 0.15300959 0.89688963
-0.18085501 0.15537345 0.89642274
-0.18337967 0.16277599 0.89681959
-0.18811291 0.17729655 0.89607686
-0.18819068 0.18714413 0.8964473
-0.19301434 0.19929644 0.89615256
-0.19315229 0.20432791 0.89679307
-0.1930452 0.20910095 0.89629585
-0.19311422 0.21406378 0.89661634
-0.19057707 0.21640207 0.89617842
-0.19060473 0.22131985 0.89630848
-0.18346922 0.17019284 0.89725763
-0.18836117 0.19220525 0.89725941
-0.19091828 0.21189509 0.89778298
-0.1787315 0.14830846 0.89803058
-0.18378672 0.16803734 0.89881033
-0.18617454 0.18022721 0.89851016
-0.18608211 0.18503368 0.89806408
-0.18856885 0.19731413 0.89824873
-0.188638 0.19983588 0.89857817
-0.19098862 0.20707692 0.89811367
-0.19116132 0.21461517 0.89892584
-0.19098805 0.21931686 0.89811105
-0.17416266 0.13387242 0.89971948
-0.17650275 0.14114001 0.89914685
-0.18154982 0.16087615 0.89986664
-0.18645093 0.17804192 0.89984405
-0.1863903 0.18288811 0.89955145
-0.19128552 0.20494692 0.89950985
-0.17437509 0.13649119 0.90081686
-0.17916255 0.15357372 0.90019631
-0.17930411 0.1561508 0.90090764
-0.18164994 0.15851061 0.90036285
-0.18423012 0.1733546 0.9009788
-0.18897988 0.20265187 0.90020669
-0.18904769 0.21990748 0.90052968
-0.17693803 0.14640203 0.90136427
-0.18197352 0.16616884 0.90196675
-0.18432046 0.17589673 0.90142059
-0.1867269 0.1881313 0.90117598
-0.18682632 0.19068924 0.90165579
-0.18925041 0.20785663 0.90149534
-0.17708631 0.14406569 0.9021197
-0.18217072 0.16388763 0.90294421
-0.18463285 0.18604003 0.90294838
-0.18695119 0.19573551 0.9022584
-0.18949051 0.2056599 0.90263909
-0.19184488 0.21046442 0.90214026
-0.17498365 0.1394316 0.9039607
-0.17729631 0.14916044 0.90318948
-0.17740822 0.15171808 0.90375954
-0.18235062 0.17144062 0.90383589
-0.1847019 0.18118517 0.90328604
-0.18482763 0.18377239 0.90390086
-0.1872564 0.19359164 0.90373141
-0.18720318 0.2009248 0.90347457
-0.1799535 0.15918095 0.90417045
-0.18000025 0.16168757 0.90440536
-0.18257372 0.16918363 0.90494168
-0.18733163 0.19859825 0.90409452
-0.18988608 0.21348597 0.90452337
-0.18984611 0.21837117 0.904333
-0.17532259 0.1421705 0.90571165
-0.18274546 0.17674991 0.90579289
-0.18505561 0.17906521 0.90501583
-0.1852054 0.18908586 0.90574843
-0.18523942 0.19158997 0.90591478
-0.18760468 0.20382373 0.90541226
-0.19005832 0.21121179 0.90534383
-0.18279672 0.17432976 0.90604699
-0.18544304 0.19674475 0.9069106
-0.18785965 0.20904347 0.90664279
-0.19019641 0.21630448 0.90600163
-0.17812803 0.15480718 0.90742648
-0.18067527 0.16476843 0.90779698
-0.18065961 0.16722845 0.9077183
-0.17588936 0.14758371 0.90863955
-0.1783217 0.15745169 0.90841305
-0.18337698 0.1798383 0.90892315
-0.18568739 0.19452864 0.90810555
-0.18582931 0.19963181 0.90879965
-0.18580937 0.20208736 0.90870214
-0.18817793 0.20692208 0.90817887
-0.18831751 0.21450773 0.90885252
-0.17596114 0.14516613 0.90901041
-0.18342477 0.18236338 0.90915996
-0.18843044 0.21959412 0.90939754
-0.18112673 0.1726222 0.91006529
-0.18371131 0.18761246 0.91058022
-0.18376191 0.19262969 0.91083103
-0.18868525 0.21244439 0.91062731
-0.18875349 0.21748747 0.91095662
-0.1814809 0.1704742 0.91184479
-0.18140134 0.17785284 0.91144508
-0.18382561 0.18524554 0.91114676
-0.18159851 0.175559 0.91243577
-0.18399836 0.19039159 0.91200304
-0.18660463 0.20543987 0.91259134
-0.18685596 0.20820749 0.91382045
-0.18671556 0.21054009 0.9131338
-0.18445489 0.19584826 0.91426587
-0.18444158 0.1983261 0.91419989
-0.18698251 0.21582635 0.91443938
-0.18460731 0.2034927 0.91502136
-0.18487246 0.2012872 0.91633558
-0.18740477 0.2138155 0.91650444
-0.18539827 0.20686945 0.9189418
-0.18566877 0.21218836 0.92028254
-0.18590702 0.21748416 0.92146343
-0.18603233 0.2100904 0.92208457
-0.18634658 0.21548069 0.92364216
