# .PCD v0.7 - Point Cloud Data file format
VERSION 0.7
FIELDS x y z
SIZE 4 4 4
TYPE F F F
COUNT 1 1 1
WIDTH 1062
HEIGHT 1
VIEWPOINT 0 0 0 1 0 0 0
POINTS 1062
DATA ascii
-0.20089273 0.1344966 0.85682428
-0.20371492 0.13481864 0.85887593
-0.21330288 0.13495995 0.85977614
-0.21084267 0.13488536 0.85930091
-0.20848653 0.13487642 0.85924393
-0.20613533 0.1348705 0.85920626
-0.19910134 0.13486521 0.85917258
-0.20396334 0.13967107 0.8599233
-0.21826313 0.13512897 0.86085296
-0.21586215 0.13509491 0.86063594
-0.19715708 0.13513781 0.86090922
-0.20413847 0.13744497 0.86066163
-0.20173216 0.13740392 0.86040455
-0.20171182 0.13973515 0.86031777
-0.21369019 0.13755287 0.8613373
-0.21134071 0.13755181 0.86133069
-0.20910726 0.13762712 0.86180222
-0.2066634 0.13756406 0.86140734
-0.20910017 0.13997151 0.86177295
-0.20672187 0.13995171 0.86165106
-0.20665927 0.14460535 0.86139017
-0.20439544 0.14466493 0.86174506
-0.22101966 0.1353801 0.86245275
-0.1999781 0.13781138 0.86295599
-0.21389976 0.14003794 0.86218202
-0.21155332 0.14004041 0.86219722
-0.19986555 0.14008477 0.86247033
-0.20447829 0.14237364 0.86209434
-0.20935471 0.14484572 0.862822
-0.20215911 0.14474557 0.86222547
-0.21653742 0.13787082 0.86332822
-0.21662517 0.14028095 0.8636781
-0.20709786 0.14255925 0.86321825
-0.20245673 0.14260493 0.86349487
-0.20015992 0.14499992 0.86374056
-0.20234343 0.15899216 0.86301166
-0.22388068 0.13568927 0.86442238
-0.21910767 0.13800748 0.8641839
-0.19805615 0.13811146 0.86483508
-0.2191074 0.14036293 0.86418289
-0.19798252 0.14041664 0.86451358
-0.21458502 0.14284427 0.86494416
-0.20977625 0.14278074 0.86455935
-0.21928841 0.14519402 0.86489677
-0.21688895 0.14516598 0.86472976
-0.21451491 0.14515454 0.86466151
-0.21215597 0.14515316 0.86465335
-0.20505127 0.14748563 0.86451006
-0.20508772 0.14986879 0.86466378
-0.20261823 0.14978558 0.86418366
-0.20265925 0.15452811 0.86435866
-0.2050751 0.15928672 0.86461055
-0.22900152 0.13593163 0.86596632
-0.22653848 0.13587011 0.86557442
-0.19576795 0.13580206 0.86514091
-0.19347741 0.13584958 0.86544365
-0.2171012 0.14294863 0.86557597
-0.20048757 0.14287901 0.86515445
-0.21247377 0.14301015 0.86594856
-0.19828688 0.1453528 0.86584258
-0.207692 0.14768773 0.8656947
-0.20291689 0.14764726 0.86545748
-0.20763753 0.15000813 0.86546767
-0.2006558 0.15007967 0.86588043
-0.20768172 0.1547593 0.86565185
-0.20531118 0.15475109 0.86560589
-0.20067173 0.15481247 0.86594921
-0.20300187 0.15714945 0.86581993
-0.19132653 0.13599758 0.86638641
-0.18906753 0.13607143 0.86685693
-0.22202209 0.13835569 0.86636442
-0.22202681 0.14072025 0.86638284
-0.21959612 0.14303687 0.86611038
-0.21981983 0.14790918 0.86699277
-0.21739681 0.14786854 0.86675459
-0.22201732 0.15016033 0.86634576
-0.21979551 0.15025583 0.86689681
-0.21737836 0.15021844 0.86668104
-0.21262008 0.15019482 0.86654484
-0.19849876 0.15023346 0.86676776
-0.20778345 0.15955669 0.86607587
-0.2007619 0.15960501 0.86633825
-0.20323849 0.16205829 0.86682916
-0.20559092 0.16441281 0.86678529
-0.20320657 0.1643953 0.86669302
-0.20086892 0.16441561 0.86680007
-0.22462998 0.14087173 0.86731547
-0.19633313 0.1409242 0.86763853
-0.19864158 0.14324844 0.86739141
-0.22235148 0.14565617 0.86764973
-0.1963366 0.14565687 0.86765385
-0.21045119 0.14796859 0.86734098
-0.20092733 0.14791931 0.86705214
-0.21523242 0.14800487 0.86755365
-0.21294764 0.14806052 0.86787981
-0.22467628 0.15035938 0.86749423
-0.215267 0.15039384 0.86769307
-0.21039775 0.15029465 0.86712074
-0.2057815 0.15274067 0.86758876
-0.20335402 0.15269369 0.86732191
-0.21278782 0.15504117 0.86722851
-0.21048421 0.15508561 0.86747706
-0.19876222 0.15516448 0.86791819
-0.20581056 0.15749273 0.86771131
-0.20094082 0.15738367 0.86711037
-0.20578361 0.16220197 0.86759764
-0.20092887 0.16210122 0.86705875
-0.23213534 0.13638599 0.86886084
-0.22483632 0.1386348 0.86811215
-0.19656196 0.13872066 0.86864978
-0.2250389 0.14586511 0.86889434
-0.22262083 0.14820057 0.8687008
-0.19886124 0.14814082 0.86835057
-0.19650505 0.15051608 0.86839831
-0.20827879 0.15283783 0.86814058
-0.20124878 0.15289041 0.86843932
-0.20839466 0.15765831 0.86862355
-0.21066006 0.15994833 0.86820179
-0.19898599 0.16007611 0.86889535
-0.18725067 0.13646941 0.86939228
-0.22751565 0.14119539 0.86930811
-0.22270764 0.14352062 0.86903954
-0.19670424 0.1435601 0.86927855
-0.19436567 0.14595285 0.86941695
-0.19201322 0.1459661 0.86949593
-0.19669807 0.14829449 0.86925131
-0.2275936 0.15072539 0.8696059
-0.19433296 0.15066728 0.86927062
-0.19902366 0.15299967 0.86905986
-0.22289428 0.1531243 0.86976784
-0.21332787 0.15306474 0.86942947
-0.21105281 0.15313356 0.86982042
-0.22521044 0.15545741 0.86955667
-0.22285204 0.15546568 0.86960298
-0.21810754 0.15546304 0.8695882
-0.21568711 0.15542696 0.86938643
-0.19915088 0.15783831 0.86961532
-0.22036672 0.16012298 0.86914974
-0.21809562 0.16019501 0.86954069
-0.213347 0.16018887 0.86950743
-0.21102968 0.16497044 0.86972511
-0.20851697 0.16485819 0.86913335
-0.20394771 0.16973706 0.86985403
-0.20148093 0.16965647 0.86944103
-0.18979879 0.13422567 0.87020969
-0.227722 0.1389517 0.87009656
-0.194562 0.13898341 0.87029517
-0.23024231 0.13904142 0.87065834
-0.23016976 0.14137013 0.87038398
-0.19456582 0.14135848 0.87031227
-0.22556147 0.14382987 0.87091202
-0.22770377 0.14605522 0.87002683
-0.2254927 0.14853251 0.87064654
-0.19461311 0.14851157 0.87052381
-0.19233656 0.15096012 0.87096012
-0.22551885 0.15329678 0.87074751
-0.22080939 0.15332286 0.87089568
-0.218261 0.1532004 0.8702001
-0.21606043 0.15332207 0.87089115
-0.22778793 0.15559894 0.87034839
-0.22076187 0.15566328 0.87070823
-0.19687466 0.15554233 0.87003171
-0.21118313 0.15797304 0.87035757
-0.22315699 0.16042571 0.87079298
-0.21587697 0.16030757 0.8701517
-0.19707502 0.16044858 0.87091714
-0.20873983 0.16266273 0.87006223
-0.21605977 0.16519111 0.87088853
-0.21367954 0.16518623 0.87086272
-0.1992811 0.16505747 0.87018394
-0.20658569 0.16758248 0.87097931
-0.20420951 0.16758081 0.87097061
-0.20165141 0.16742806 0.87017673
-0.20639154 0.16979691 0.87016076
-0.19929922 0.16981687 0.87026304
-0.20442846 0.13448708 0.87190449
-0.20201035 0.1344595 0.87172562
-0.18776676 0.13446918 0.87178844
-0.18537 0.13683048 0.87169248
-0.19249502 0.1392042 0.8716777
-0.19017212 0.13924313 0.87192142
-0.19243459 0.14153582 0.87140405
-0.19486654 0.14395297 0.87165743
-0.23056979 0.14636913 0.87189668
-0.18999508 0.14623702 0.87110966
-0.18776789 0.14635184 0.87179369
-0.22819273 0.14874552 0.87189513
-0.19242652 0.1486555 0.87136745
-0.19017875 0.151132 0.87195182
-0.19717887 0.15340744 0.87137604
-0.21377036 0.15813191 0.87123287
-0.22579247 0.16061196 0.87180394
-0.21141057 0.16289319 0.87129492
-0.19953543 0.16289312 0.8712945
-0.22108895 0.16302468 0.87199825
-0.22102104 0.16535081 0.87173045
-0.21854852 0.16527797 0.87134641
-0.20899977 0.16998911 0.87114573
-0.20427278 0.17475733 0.8712405
-0.20185141 0.17471707 0.87103981
-0.1996493 0.17486791 0.87179178
-0.20426635 0.18425098 0.87121308
-0.18554898 0.13458419 0.8725341
-0.23555982 0.1370002 0.87277377
-0.19025679 0.14168289 0.87230963
-0.18795864 0.14174294 0.87267929
-0.22842556 0.14413914 0.87278473
-0.19278592 0.14417386 0.87299496
-0.23075433 0.1512434 0.87259454
-0.22830619 0.15357514 0.87232864
-0.19507974 0.15600346 0.87261111
-0.22128542 0.15841147 0.87277317
-0.21883327 0.15835857 0.8724817
-0.21647349 0.15837209 0.87255615
-0.19742432 0.15835477 0.87246078
-0.22847366 0.16082652 0.87296855
-0.21873848 0.16304442 0.87210381
-0.21645212 0.16311288 0.87247002
-0.21415135 0.16317189 0.87278563
-0.19744857 0.16550966 0.87256789
-0.21180648 0.16795716 0.87292659
-0.20937961 0.16791914 0.872729
-0.1998187 0.16788113 0.87253147
-0.2117023 0.17025284 0.87249726
-0.20227942 0.1727082 0.87288678
-0.20685375 0.17493162 0.87210941
-0.20940037 0.17507325 0.87281549
-0.20459501 0.17979021 0.87261486
-0.20213096 0.17971423 0.87224609
-0.20702401 0.18459237 0.87282729
-0.20207478 0.18441817 0.87200367
-0.23106739 0.13477612 0.87377834
-0.199928 0.1346574 0.87300873
-0.19278723 0.13465621 0.87300092
-0.18342881 0.13715565 0.8737641
-0.23335429 0.13948296 0.87342322
-0.18812481 0.13948736 0.87345076
-0.23327684 0.14181669 0.87313336
-0.19041878 0.14894295 0.8730523
-0.23107159 0.14906952 0.87379426
-0.18810855 0.15137872 0.8733753
-0.19518533 0.15370803 0.87308341
-0.22635353 0.15862875 0.87397021
-0.22386602 0.15855424 0.87355971
-0.22635764 0.16577867 0.87398612
-0.22372703 0.16559492 0.87301737
-0.21439697 0.16812263 0.87378663
-0.21680593 0.1705258 0.87389612
-0.21428904 0.17041862 0.87334681
-0.20952325 0.17279543 0.87332767
-0.20713736 0.17279097 0.87330514
-0.20474474 0.17278075 0.87325346
-0.20001118 0.17280419 0.87337196
-0.21909371 0.17521457 0.87352008
-0.19996434 0.17990406 0.8731674
-0.20242645 0.18235804 0.87352121
-0.23357049 0.13484615 0.87423241
-0.1954491 0.1348509 0.87426323
-0.18361337 0.13490953 0.87464333
-0.23119465 0.14438272 0.87425959
-0.1906914 0.14438975 0.87430221
-0.18837689 0.1492106 0.87462121
-0.23132814 0.15638843 0.87476438
-0.19305086 0.15628658 0.87419468
-0.19083935 0.15642707 0.87498057
-0.22891735 0.15875463 0.87466377
-0.19540448 0.16102827 0.87406367
-0.22413695 0.16351426 0.87461692
-0.19780694 0.16342726 0.87415159
-0.22896525 0.16594192 0.87484682
-0.19541624 0.16580337 0.8741163
-0.2170392 0.16832462 0.87483639
-0.22418424 0.17070246 0.87480146
-0.22180346 0.17070538 0.87481636
-0.21924272 0.17056835 0.87411416
-0.19777898 0.17055155 0.87402809
-0.2122314 0.17306258 0.87467784
-0.22160888 0.17532066 0.87404895
-0.21691656 0.17537944 0.87434202
-0.21467143 0.17549242 0.87490523
-0.21221398 0.1754324 0.87460601
-0.19785322 0.17538229 0.87435615
-0.20738006 0.18014327 0.87432837
-0.20495564 0.18248993 0.87415296
-0.20018639 0.18486935 0.87413698
-0.20497072 0.1872693 0.87421727
-0.20275505 0.18742394 0.8749392
-0.23620901 0.13499218 0.87517911
-0.22901477 0.1349701 0.875036
-0.22676599 0.13505135 0.87556279
-0.22432055 0.13501596 0.87533337
-0.18618357 0.14220406 0.87551826
-0.18847284 0.14451601 0.8750667
-0.23381913 0.14691748 0.87516308
-0.18610822 0.14691761 0.87516391
-0.23158339 0.15417388 0.87572956
-0.1933198 0.15411806 0.87541252
-0.21965711 0.16850354 0.87576634
-0.19808432 0.16842872 0.87537742
-0.22672465 0.17081988 0.87540317
-0.22206905 0.17329724 0.87586391
-0.21955582 0.17319804 0.87536252
-0.21723986 0.17325397 0.87564516
-0.21479703 0.17320885 0.87541711
-0.22442238 0.17565799 0.87573069
-0.20283143 0.17795119 0.87526882
-0.2099712 0.1803218 0.87519485
-0.19800532 0.18028748 0.87502831
-0.20776781 0.18286784 0.87596321
-0.20039544 0.18267715 0.87504983
-0.209975 0.18509641 0.87521064
-0.20764351 0.18753104 0.87543911
-0.20530736 0.19235066 0.87565309
-0.22213767 0.13513955 0.87613457
-0.19832717 0.13518831 0.87645066
-0.18633819 0.13993365 0.87624532
-0.23661627 0.14000435 0.87668806
-0.23656939 0.14236584 0.87651438
-0.18648794 0.14482695 0.87694955
-0.23416856 0.15191528 0.87647098
-0.18631089 0.15185392 0.87611693
-0.19106379 0.15422319 0.87600964
-0.18884872 0.15436442 0.87681186
-0.1887068 0.15663667 0.87615293
-0.19589335 0.15904261 0.87625039
-0.23178542 0.16147593 0.87649357
-0.1936152 0.16152319 0.87675017
-0.22692978 0.16380933 0.87619519
-0.19589396 0.16382016 0.87625313
-0.2246812 0.16869101 0.87674063
-0.22224523 0.16865602 0.87655878
-0.19595228 0.16864741 0.87651402
-0.19593781 0.17102401 0.87644929
-0.22469711 0.173483 0.87680274
-0.21029949 0.17821434 0.87656319
-0.20795308 0.17825116 0.87674427
-0.20539492 0.17810524 0.87602651
-0.20061973 0.17810579 0.87602919
-0.21987116 0.18061538 0.87661976
-0.21021995 0.18770081 0.87623161
-0.20078656 0.18781351 0.87675774
-0.20559064 0.19022587 0.87686127
-0.2030109 0.19243637 0.87604332
-0.20307007 0.19726975 0.87629861
-0.23934716 0.13541795 0.87793952
-0.18191876 0.13542283 0.87797105
-0.23912811 0.13768496 0.87713605
-0.18177326 0.1377058 0.87726885
-0.2344763 0.14493814 0.87762278
-0.18427616 0.14736024 0.87780052
-0.23437613 0.14965871 0.87724787
-0.18659332 0.14969234 0.87744504
-0.19381593 0.15929832 0.8776592
-0.22963928 0.16403872 0.87742221
-0.19367404 0.16635351 0.87701666
-0.2271806 0.1687724 0.87716365
-0.22725569 0.17600358 0.87745357
-0.22010784 0.1784177 0.87756336
-0.21775654 0.17845112 0.87772781
-0.21531086 0.1784071 0.87751126
-0.21297139 0.17845108 0.87772757
-0.19850035 0.17834705 0.87721592
-0.2223981 0.18072703 0.87716174
-0.21760428 0.18071723 0.87711412
-0.21519037 0.18069787 0.87702018
-0.21292035 0.18080029 0.87751722
-0.22019519 0.1832746 0.87791163
-0.21057373 0.18323173 0.87770629
-0.19855656 0.18318121 0.87746435
-0.19848116 0.18550257 0.8771311
-0.20330697 0.19032557 0.87732089
-0.19864941 0.19044571 0.87787467
-0.20805563 0.19268532 0.87717664
-0.20103201 0.19282873 0.87782949
-0.20581613 0.19522011 0.877823
-0.20821166 0.1976155 0.8778345
-0.20564152 0.19744527 0.87707829
-0.18450779 0.14035819 0.87890381
-0.18444854 0.14270811 0.87862158
-0.18680993 0.15465522 0.87846363
-0.18678212 0.1570264 0.87833291
-0.23224959 0.15940534 0.87824881
-0.19170307 0.16192675 0.87894064
-0.23238184 0.16668208 0.87874889
-0.19170047 0.16671619 0.87892872
-0.22993326 0.16903827 0.87854546
-0.22989021 0.17140093 0.87838095
-0.19407979 0.17149326 0.87885404
-0.22744104 0.17375338 0.87816924
-0.19876952 0.17380013 0.87840551
-0.22270355 0.17858095 0.87836641
-0.22510716 0.18098275 0.87840283
-0.22520679 0.1834583 0.87879163
-0.2227007 0.18336719 0.87835521
-0.21799178 0.18343417 0.87867606
-0.21552657 0.18337454 0.87839037
-0.21314429 0.18338493 0.87844014
-0.21326192 0.18588194 0.87892497
-0.19633508 0.1857342 0.87822634
-0.22040179 0.18823715 0.87873536
-0.20835415 0.19056731 0.87843519
-0.20111094 0.19051069 0.87817419
-0.21065517 0.19287622 0.87804568
-0.20835572 0.19535774 0.87844187
-0.20351523 0.19530831 0.8782196
-0.20127384 0.1978521 0.87888551
-0.17990817 0.13810974 0.87984222
-0.23745437 0.14769477 0.87979329
-0.18458082 0.15239726 0.87925172
-0.23500024 0.15485243 0.87958384
-0.23505367 0.15728579 0.87978387
-0.19174917 0.15956926 0.879152
-0.19418824 0.16439822 0.87934512
-0.19422729 0.16922615 0.87952197
-0.22543205 0.17884612 0.87967062
-0.19657895 0.18356802 0.87931716
-0.220716 0.18610679 0.87998807
-0.2182247 0.18602785 0.87961489
-0.21584181 0.18604061 0.87967521
-0.21808696 0.18830661 0.87905967
-0.21580054 0.18840243 0.87950701
-0.213296 0.18830784 0.87906539
-0.19907098 0.18845184 0.87973768
-0.2110094 0.19080313 0.8795222
-0.21579854 0.19319543 0.87949884
-0.21335083 0.19314986 0.87929142
-0.21591935 0.19810101 0.87999117
-0.20388618 0.20046081 0.87982035
-0.20627207 0.20284688 0.8797676
-0.20375896 0.20273247 0.87927133
-0.20854226 0.20751582 0.87922829
-0.20618302 0.20755346 0.8793878
-0.20392241 0.20769244 0.87997663
-0.20613024 0.21229324 0.87916267
-0.20381215 0.21237491 0.87950087
-0.18013771 0.13348322 0.88096482
-0.24007955 0.14303367 0.88062596
-0.18479078 0.14537233 0.88025188
-0.18484664 0.15021658 0.88051796
-0.18953925 0.15972644 0.880018
-0.18962672 0.16220005 0.88042408
-0.2328622 0.16462636 0.8805654
-0.18974409 0.16710319 0.88096899
-0.19213881 0.17189999 0.88093847
-0.19693735 0.17429771 0.88092035
-0.19685581 0.1766258 0.88055563
-0.22799544 0.17897607 0.88030982
-0.19673343 0.1813135 0.88000816
-0.22325093 0.18862058 0.88052535
-0.2184945 0.19105916 0.88070238
-0.19683622 0.1910083 0.88046795
-0.21833737 0.19332068 0.88006902
-0.19932236 0.19349192 0.88084859
-0.21613605 0.19589871 0.8808744
-0.21375583 0.19591787 0.88096052
-0.21120548 0.19577976 0.8803395
-0.21850319 0.19826901 0.88073742
-0.21126837 0.19823842 0.88060158
-0.20643894 0.20061095 0.88047934
-0.20880589 0.20297882 0.8803398
-0.20168385 0.20305631 0.88067585
-0.21125641 0.20782819 0.88055182
-0.20647946 0.2102524 0.88065219
-0.21125971 0.21263199 0.88056552
-0.20887132 0.2126441 0.88061565
-0.20161048 0.21258125 0.88035542
-0.20407827 0.22225426 0.88064927
-0.18258473 0.13351661 0.88118517
-0.18019842 0.13593039 0.88126171
-0.24276605 0.13839585 0.88166487
-0.24041736 0.1408311 0.88186508
-0.18271856 0.14082566 0.88183105
-0.1826656 0.14318788 0.88157547
-0.23786053 0.14554513 0.88129818
-0.18273781 0.14805245 0.88192397
-0.23792364 0.15279248 0.88153195
-0.18510346 0.15523227 0.88174134
-0.1851062 0.15763809 0.8817544
-0.19230974 0.16484262 0.88172215
-0.19235824 0.16969228 0.88194454
-0.23311764 0.17201568 0.88153136
-0.23063891 0.1767634 0.88124162
-0.19471501 0.17686146 0.8817305
-0.19714543 0.17928945 0.88185114
-0.22823332 0.18396698 0.88122827
-0.22351027 0.18643673 0.88154823
-0.22599918 0.18891154 0.88188362
-0.19696414 0.18873087 0.88104022
-0.22101535 0.19116312 0.8811816
-0.21630561 0.19124639 0.88156545
-0.21385399 0.19120292 0.88136506
-0.22097485 0.19352961 0.88102013
-0.20184593 0.19601196 0.8813836
-0.22113605 0.19847731 0.88166279
-0.21379724 0.19835764 0.88113117
-0.1994119 0.19838311 0.8812443
-0.20899427 0.20076011 0.88113403
-0.20192561 0.20089625 0.88173151
-0.21870826 0.20326109 0.88156402
-0.1995092 0.20328651 0.88167429
-0.20910609 0.20567375 0.88160545
-0.2067109 0.20568165 0.8816393
-0.20433649 0.20571065 0.88176358
-0.20911998 0.21049398 0.88166404
-0.20416902 0.21034519 0.88104087
-0.2065904 0.21757078 0.88112533
-0.20420319 0.21758634 0.88118833
-0.20196578 0.21776377 0.88190693
-0.20666067 0.22245003 0.88142502
-0.2043653 0.22497073 0.88188785
-0.20422129 0.2272144 0.88126642
-0.20193478 0.22734463 0.88177156
-0.18776858 0.1337873 0.88297164
-0.18529372 0.1337382 0.88264763
-0.17802015 0.13369638 0.88237154
-0.24057342 0.14813867 0.88243753
-0.23830269 0.15062918 0.88293642
-0.18775743 0.16025303 0.88291925
-0.23581792 0.16260909 0.88264436
-0.18757406 0.16250086 0.88205689
-0.23328327 0.16973329 0.88215768
-0.23087776 0.17454185 0.88215429
-0.22855134 0.18181789 0.88245618
-0.19477803 0.18172716 0.88201582
-0.22605532 0.186554 0.88210273
-0.22859597 0.1890711 0.8826285
-0.22386818 0.19154888 0.88295984
-0.2236397 0.19375774 0.88205868
-0.19737294 0.19393569 0.88286877
-0.22144765 0.19635034 0.88290513
-0.2188569 0.19618532 0.88216311
-0.21894439 0.20107494 0.88251579
-0.21643497 0.20338297 0.88209265
-0.21406607 0.20822644 0.88223916
-0.20199381 0.20817691 0.88202929
-0.19973662 0.20833032 0.88267928
-0.20215163 0.21074571 0.88271844
-0.21410486 0.21307473 0.88239902
-0.20680447 0.21539193 0.88203835
-0.2044255 0.21541861 0.88214761
-0.20199731 0.21539345 0.88204461
-0.21418054 0.21796231 0.88271093
-0.2117856 0.21797381 0.88275754
-0.20927446 0.2178646 0.88231528
-0.20198832 0.2225965 0.88200533
-0.20692879 0.22514439 0.8825686
-0.20217369 0.22520721 0.88281482
-0.20679609 0.22740422 0.88200265
-0.18068175 0.14352085 0.88362545
-0.18311912 0.14595239 0.88376421
-0.23615062 0.16042915 0.88388962
-0.18551365 0.16280268 0.88369524
-0.19022645 0.16512051 0.88320857
-0.23594832 0.16751356 0.88313246
-0.18793502 0.16763152 0.88375437
-0.1901906 0.1723105 0.88304216
-0.19500954 0.1747219 0.88306427
-0.19273706 0.17725278 0.88368142
-0.23124306 0.17963485 0.88355005
-0.19510184 0.18684575 0.88348222
-0.19506687 0.18922006 0.88332385
-0.19512823 0.19168812 0.88360167
-0.22646929 0.19412225 0.88371807
-0.19758427 0.19896162 0.8838141
-0.21673456 0.20125672 0.8833136
-0.19998571 0.201363 0.88378006
-0.22155789 0.20367165 0.88334465
-0.21436642 0.20370215 0.88347697
-0.21186575 0.20361331 0.88309163
-0.20222208 0.20600517 0.88302606
-0.20000014 0.20619597 0.88384384
-0.21685377 0.20859471 0.88379949
-0.21185745 0.21082655 0.883057
-0.19990309 0.21332005 0.88341492
-0.21929389 0.21826197 0.88392454
-0.21668547 0.21806172 0.88311356
-0.20715351 0.22057217 0.88352704
-0.20480818 0.22064005 0.88379896
-0.21202609 0.22303931 0.88375992
-0.20960876 0.22303043 0.88372475
-0.17854227 0.13891301 0.88495946
-0.18079202 0.14119834 0.88416469
-0.18323405 0.15327553 0.88431889
-0.19046742 0.17015074 0.88432735
-0.19301803 0.1750989 0.88496965
-0.19527376 0.17977932 0.88426065
-0.19283998 0.18216756 0.88415331
-0.23142669 0.18459815 0.88425165
-0.19528815 0.18461365 0.88432586
-0.22896993 0.18697058 0.88407242
-0.20011742 0.19667436 0.88436216
-0.22431462 0.1991657 0.88472068
-0.22186562 0.20154335 0.88457161
-0.21468179 0.20159008 0.88477671
-0.21220393 0.20152731 0.88450122
-0.1977087 0.20390821 0.88437063
-0.22438443 0.20405239 0.884996
-0.21949655 0.20640536 0.88474143
-0.21706645 0.20638783 0.88466626
-0.214555 0.20629169 0.88425416
-0.21208714 0.20623575 0.88401437
-0.1977471 0.20877005 0.88454241
-0.21461302 0.21116945 0.88449329
-0.21954182 0.21368441 0.88492388
-0.21691987 0.21347794 0.88406885
-0.20972353 0.21592191 0.88420862
-0.21704111 0.21600844 0.88456297
-0.21466906 0.21604782 0.88472426
-0.21225199 0.21604228 0.88470155
-0.20011508 0.21836747 0.88435179
-0.21708812 0.22329034 0.8847546
-0.17626266 0.13418947 0.88562596
-0.24131067 0.14617988 0.88514179
-0.18339258 0.15099555 0.88508397
-0.23892751 0.15585023 0.88525146
-0.2388856 0.15823551 0.88509613
-0.18582799 0.16066565 0.88519257
-0.2366028 0.16556425 0.88558209
-0.18828617 0.16553126 0.8854056
-0.23660034 0.17280433 0.88557291
-0.18837021 0.17284879 0.88580078
-0.23419221 0.17522259 0.88559479
-0.23416385 0.17761506 0.88548756
-0.19074033 0.17763652 0.88559449
-0.19065532 0.18238316 0.88519979
-0.23169158 0.18963562 0.8852638
-0.22943957 0.19218363 0.88588572
-0.22697906 0.19214492 0.88570726
-0.22922507 0.19441648 0.88505751
-0.22455806 0.19696762 0.88568079
-0.22686195 0.19928494 0.88525033
-0.19805267 0.20667782 0.88590932
-0.22450127 0.20898588 0.88545686
-0.22206065 0.20896046 0.88534915
-0.21962909 0.20894311 0.88527566
-0.22701021 0.20907366 0.88582879
-0.20029441 0.21132487 0.88514429
-0.2221247 0.21384875 0.8856045
-0.21963602 0.2161893 0.88530362
-0.20027779 0.21613246 0.88507086
-0.19795504 0.21864422 0.8854726
-0.21006122 0.22109777 0.8856324
-0.2027538 0.22102675 0.8853479
-0.21980138 0.22359711 0.88597012
-0.21474859 0.22336541 0.88505203
-0.20041522 0.22352344 0.88567817
-0.21244982 0.22589886 0.88552612
-0.21001023 0.22587113 0.8854174
-0.17877416 0.13667804 0.88610888
-0.2441026 0.1439908 0.88651884
-0.17887321 0.14400394 0.88659978
-0.18120715 0.14876944 0.88619494
-0.24158761 0.15359424 0.88615763
-0.18378223 0.15856953 0.8869645
-0.2367253 0.17048039 0.88604063
-0.193243 0.18013316 0.88600105
-0.23199888 0.18263826 0.88643789
-0.19337648 0.18509112 0.88661307
-0.23207667 0.18753372 0.8867352
-0.19324633 0.18738168 0.88601637
-0.19584234 0.19480702 0.8868354
-0.22724257 0.19720219 0.88673556
-0.19808856 0.19705413 0.88606983
-0.19586603 0.19966592 0.88694268
-0.19825637 0.20205574 0.8868205
-0.22712153 0.20434457 0.88626319
-0.19585662 0.20932651 0.88690007
-0.21754949 0.21168076 0.88663495
-0.1982003 0.21408181 0.88656962
-0.22233933 0.21888809 0.88646024
-0.21749783 0.22129549 0.88642436
-0.21520793 0.22142549 0.88694513
-0.21264431 0.22127362 0.88633674
-0.22231123 0.22369254 0.88634825
-0.21753791 0.22616968 0.88658774
-0.21509418 0.22614126 0.88647634
-0.2442805 0.14167747 0.88716495
-0.2418967 0.15137213 0.88729137
-0.18388472 0.1562389 0.88745916
-0.18622893 0.16584851 0.88710254
-0.18631561 0.16834493 0.88751543
-0.18879819 0.17082147 0.88781333
-0.19123764 0.17567939 0.88790351
-0.23469248 0.18043518 0.88748658
-0.23460627 0.18520541 0.88716054
-0.19116005 0.18770461 0.88754326
-0.19365193 0.19261539 0.88787597
-0.23236072 0.1950234 0.88782048
-0.22509405 0.20227773 0.88779485
-0.22987524 0.2046454 0.88756788
-0.19594432 0.20458299 0.88729721
-0.22753714 0.20713873 0.88788497
-0.22510806 0.2071306 0.88785011
-0.22255644 0.2070083 0.88732588
-0.22015679 0.21186407 0.88740271
-0.19842923 0.21190965 0.88759369
-0.22489734 0.21419032 0.88701898
-0.19833018 0.21664032 0.88715059
-0.19589208 0.21903636 0.88706064
-0.22009377 0.22147632 0.88714868
-0.22510621 0.22406973 0.88784277
-0.20074326 0.22630747 0.88712788
-0.17915833 0.14181291 0.88801301
-0.18159109 0.1466639 0.88807261
-0.18172573 0.15404028 0.888731
-0.2397566 0.16365531 0.88832331
-0.18414748 0.16372973 0.88872725
-0.23978741 0.16851982 0.88843745
-0.18902326 0.17829388 0.88887173
-0.19126704 0.1805477 0.88804001
-0.19135241 0.18547174 0.88843632
-0.19384731 0.19038709 0.88877183
-0.23243646 0.19266613 0.88810986
-0.19613315 0.19751726 0.8881523
-0.19373178 0.19995844 0.88824213
-0.23016416 0.20005777 0.88868338
-0.19370255 0.20476994 0.88810807
-0.23017511 0.20733488 0.8887257
-0.2299941 0.20959245 0.88802683
-0.22535831 0.21220651 0.8888371
-0.22284876 0.21212396 0.88849133
-0.19611955 0.21444911 0.88809067
-0.22282904 0.21694854 0.88841271
-0.22525631 0.21937567 0.88843483
-0.22288868 0.22185123 0.88865048
-0.20111939 0.22188608 0.88879007
-0.26441008 0.13724758 0.88980132
-0.26187456 0.13718992 0.88942748
-0.17710654 0.13725756 0.88986605
-0.26688039 0.13969652 0.88995093
-0.26445454 0.13969652 0.88995099
-0.26187927 0.13961688 0.88944352
-0.25953537 0.13966022 0.88971972
-0.17708436 0.13966569 0.88975453
-0.24017781 0.16151714 0.88988394
-0.24004643 0.17355056 0.88939714
-0.18666463 0.17350779 0.88917798
-0.23768108 0.17601861 0.88961798
-0.18918695 0.18329832 0.88964146
-0.23524988 0.19056329 0.88959438
-0.19159663 0.19298294 0.88957024
-0.23033074 0.1977784 0.88932657
-0.19404529 0.19785689 0.88967949
-0.22794448 0.20266044 0.88947451
-0.19160926 0.20512059 0.88962889
-0.19633481 0.20741414 0.88906544
-0.19408774 0.2076028 0.88987416
-0.1939411 0.20986977 0.88920182
-0.19646789 0.21240492 0.88966811
-0.19632861 0.21710108 0.88903737
-0.19390748 0.21952699 0.88904768
-0.1988264 0.22203092 0.88937026
-0.19650768 0.22215025 0.88984823
-0.22798297 0.22451943 0.88962466
-0.19883402 0.22446384 0.88940436
-0.174832 0.13494855 0.89063567
-0.26698557 0.13732475 0.89030164
-0.25742817 0.13983299 0.89082032
-0.18206443 0.15190032 0.89038748
-0.18210523 0.15921715 0.89058697
-0.1844164 0.16154276 0.89002508
-0.18939821 0.17621982 0.89063489
-0.23779139 0.17852639 0.89003086
-0.23536938 0.18338172 0.8900463
-0.23556016 0.18838654 0.89076769
-0.18926857 0.18822953 0.89002532
-0.19431518 0.1957036 0.89091694
-0.19654684 0.202786 0.89002562
-0.19426809 0.2029399 0.89070106
-0.22813979 0.21254064 0.89023662
-0.19412422 0.21492015 0.89004141
-0.22822461 0.21504721 0.8905676
-0.19179657 0.21503054 0.89049852
-0.22587873 0.21755341 0.8908897
-0.19432242 0.21756817 0.89095014
-0.22814761 0.21982811 0.89026713
-0.22565885 0.22219375 0.89002246
-0.19656865 0.22464554 0.89012438
-0.26494211 0.13509341 0.89159173
-0.26259106 0.13513421 0.89186102
-0.25996432 0.13746181 0.89119023
-0.24792325 0.13995041 0.89156836
-0.17986992 0.14723656 0.89154011
-0.17982244 0.14962725 0.89130479
-0.24058269 0.16664897 0.89138407
-0.18481828 0.16675751 0.89196467
-0.18472838 0.16910656 0.89153075
-0.24048004 0.17143533 0.89100373
-0.1870763 0.17146134 0.89113897
-0.18712506 0.17879523 0.89137119
-0.18967468 0.18133959 0.89193499
-0.18968208 0.18620941 0.8919698
-0.19191913 0.19087887 0.89106756
-0.18968609 0.1935076 0.89198864
-0.23341574 0.19833994 0.89185154
-0.23341165 0.20076749 0.89183599
-0.23088621 0.20311539 0.89147127
-0.19204919 0.20802209 0.89167142
-0.1919432 0.21033651 0.89117932
-0.19453661 0.21294546 0.89193219
-0.22838661 0.22248766 0.89119977
-0.1944236 0.22254115 0.89141405
-0.19452058 0.22508323 0.89185864
-0.17768773 0.14257517 0.8927862
-0.17758358 0.14492375 0.89226282
-0.18240955 0.15705158 0.8920753
-0.18745692 0.17667829 0.89295202
-0.23846196 0.18146275 0.89254075
-0.18739301 0.18391769 0.89264762
-0.1898542 0.19124551 0.89277917
-0.23597953 0.19358675 0.89235353
-0.2359616 0.19600427 0.89228576
-0.19231893 0.19614443 0.89292383
-0.19216265 0.20084903 0.8921982
-0.2334832 0.20569251 0.89210933
-0.23104917 0.21298565 0.89210051
-0.23126478 0.21561839 0.89293301
-0.22883315 0.21805464 0.89294225
-0.23116736 0.22039349 0.89255685
-0.19228607 0.22044645 0.8927713
-0.19221796 0.22523375 0.89245504
-0.26789126 0.13535555 0.89332181
-0.18268441 0.16215885 0.89341944
-0.18267101 0.1645821 0.89335394
-0.18505879 0.17427805 0.89312536
-0.24125899 0.17686383 0.89388984
-0.23860081 0.18643709 0.89306045
-0.18752132 0.18891338 0.89325881
-0.18767111 0.19393793 0.89397234
-0.19000877 0.19870788 0.89350605
-0.19251995 0.20365898 0.89385712
-0.1899233 0.2107908 0.89310414
-0.23397772 0.21100196 0.8939988
-0.19238451 0.2132549 0.89322829
-0.19234653 0.21808143 0.89305198
-0.23153603 0.22318183 0.89398032
-0.25836816 0.14278069 0.89407313
-0.18047571 0.1550476 0.89454275
-0.1853784 0.17214033 0.89466786
-0.18542048 0.17949724 0.894871
-0.18784976 0.18192683 0.89482337
-0.23911032 0.18439567 0.8949675
-0.19260456 0.19887333 0.89424998
-0.19028504 0.20143589 0.89480519
-0.23413876 0.20383145 0.8946141
-0.23403133 0.20861284 0.89420366
-0.19020519 0.2159798 0.89442968
-0.23162137 0.2183886 0.89430982
-0.19271669 0.22337912 0.89477062
-0.26117304 0.13566042 0.89533395
-0.25867671 0.13807118 0.89514083
-0.17576244 0.13810739 0.89537561
-0.25623348 0.14050943 0.89512962
-0.24904332 0.14546518 0.89559627
-0.18074189 0.1528343 0.89586204
-0.18059395 0.16002913 0.89512879
-0.18805572 0.18700993 0.89580446
-0.18804489 0.19188252 0.89575285
-0.19044659 0.19672456 0.89556479
-0.18809177 0.19925721 0.89597613
-0.19049221 0.20653871 0.89577937
-0.19050567 0.21387906 0.89584267
-0.23447588 0.22121954 0.89590222
-0.19044599 0.22113553 0.89556199
-0.2616553 0.14324605 0.8969872
-0.24936305 0.14320755 0.8967461
-0.17849661 0.14811355 0.89685041
-0.18331003 0.1676015 0.89647907
-0.18328568 0.17002258 0.89635998
-0.18573833 0.17736146 0.89640492
-0.23939031 0.19193879 0.89601552
-0.23465401 0.21649973 0.89658284
-0.19070072 0.21898691 0.89675993
-0.19072008 0.22389849 0.89685094
-0.17609285 0.14081225 0.89705878
-0.25684991 0.14329329 0.89728302
-0.17852663 0.15058352 0.89700115
-0.18103409 0.15797323 0.89731038
-0.24722143 0.16051483 0.89784563
-0.18604499 0.18254928 0.89788496
-0.18588254 0.18483524 0.89710093
-0.18844117 0.19718054 0.89764053
-0.23726897 0.19953597 0.89722955
-0.18842918 0.20206131 0.89758337
-0.23476601 0.21415794 0.89701074
-0.23481922 0.21909781 0.89721406
-0.18121414 0.16302705 0.89820278
-0.18378033 0.17293136 0.89877909
-0.18368667 0.17529191 0.89832103
-0.18371469 0.18021674 0.89845806
-0.18607605 0.18992345 0.89803481
-0.18624936 0.19500069 0.89887124
-0.23750482 0.20218244 0.89812142
-0.19097033 0.20460923 0.89802772
-0.23747739 0.20705479 0.8980177
-0.18864441 0.22188784 0.89860868
-0.23505995 0.22421876 0.89813387
-0.25247017 0.13623199 0.8991062
-0.17655453 0.14363307 0.89941067
-0.1765267 0.14606169 0.89926887
-0.25002143 0.15093817 0.89911366
-0.17892559 0.15582116 0.89900577
-0.2475621 0.15828528 0.89908284
-0.17908069 0.16086157 0.8997851
-0.18149845 0.16573502 0.89961201
-0.1864683 0.18787076 0.89992791
-0.18647973 0.19278869 0.89998311
-0.18893099 0.20750579 0.89997375
-0.19124824 0.20980985 0.89933455
-0.23795465 0.21237645 0.89982241
-0.26018277 0.1462377 0.90035254
-0.25768667 0.14621393 0.90020621
-0.25042623 0.14872774 0.90056944
-0.17915063 0.15356351 0.90013647
-0.18416037 0.17819895 0.90063763
-0.18418391 0.18313234 0.90075278
-0.18412679 0.1855301 0.90047348
-0.18905263 0.21991323 0.90055323
-0.25812042 0.1390862 0.90172142
-0.25562885 0.14152554 0.90160286
-0.17941284 0.1587027 0.90145391
-0.24821027 0.16607122 0.90143687
-0.18686226 0.20055889 0.90182924
-0.23828264 0.2175815 0.90106273
-0.26074052 0.13671327 0.90228254
-0.25346082 0.13922699 0.9026342
-0.25342447 0.1416671 0.90250468
-0.25598201 0.14418207 0.90284842
-0.24846418 0.16378142 0.90235901
-0.2559059 0.1662818 0.90257996
-0.18216717 0.1688069 0.90292656
-0.18207289 0.17117949 0.90245926
-0.18209387 0.1761197 0.90256327
-0.18213683 0.1810829 0.90277624
-0.287738 0.18340717 0.90210456
-0.28292203 0.1883931 0.90243
-0.2805019 0.19088002 0.90255785
-0.27805212 0.1908872 0.90259182
-0.27567858 0.19094729 0.90287596
-0.18446559 0.19078961 0.90213037
-0.18692642 0.19816867 0.90213889
-0.189418 0.20558119 0.90229368
-0.18950219 0.21305436 0.9026947
-0.23865838 0.21546456 0.90248358
-0.23865557 0.22284202 0.90247297
-0.25605181 0.14668308 0.90309465
-0.25373393 0.14676628 0.90360683
-0.25624543 0.16157535 0.9037776
-0.25382501 0.1616028 0.90393114
-0.17976405 0.16393743 0.90321857
-0.28819463 0.18616112 0.90353614
-0.18468808 0.18855768 0.90321839
-0.28312665 0.19099101 0.90308267
-0.18718734 0.20337032 0.90339816
-0.23886488 0.2205753 0.90326446
-0.18727443 0.22317424 0.90381843
-0.2514618 0.15673766 0.90429348
-0.25658718 0.16425766 0.90498286
-0.25896069 0.16666442 0.90465683
-0.18005243 0.16666639 0.9046675
-0.18239923 0.17395067 0.90407681
-0.28845444 0.17646849 0.9043507
-0.18256658 0.17904353 0.90490627
-0.29088542 0.18384227 0.9042446
-0.28617477 0.18644978 0.90493715
-0.27365577 0.1912536 0.90432435
-0.28095728 0.19365412 0.90402311
-0.18503286 0.19384295 0.9049046
-0.18500152 0.19627632 0.9047513
-0.18746869 0.20860842 0.90475595
-0.18990256 0.21103869 0.90460187
-0.18995583 0.21849737 0.90485561
-0.25425139 0.14459747 0.90544957
-0.25176564 0.1544591 0.90538615
-0.25925049 0.16191351 0.90566921
-0.25170681 0.16182509 0.90517455
-0.24929248 0.16926318 0.9053672
-0.25924882 0.17178726 0.90566343
-0.24931878 0.17174919 0.90546268
-0.29129401 0.17669564 0.90551478
-0.25919428 0.17668748 0.90547293
-0.28881869 0.1816278 0.90549272
-0.28642365 0.19154966 0.90572417
-0.27147949 0.19145726 0.90528727
-0.25465164 0.15718509 0.90687495
-0.25449136 0.16696791 0.90630418
-0.25703135 0.16948421 0.90654945
-0.25701007 0.1719411 0.90647447
-0.26198217 0.17937455 0.90657926
-0.29147315 0.18174392 0.90607166
-0.26452631 0.18436778 0.90682936
-0.26449832 0.18681987 0.90673339
-0.2818338 0.18931447 0.90684348
-0.26682806 0.18919089 0.90625155
-0.19021443 0.21632497 0.90608746
-0.25740877 0.14003623 0.90788066
-0.2574226 0.15984273 0.90792942
-0.25472409 0.15970251 0.90713298
-0.25972602 0.16468376 0.90733051
-0.25469309 0.16462788 0.9070226
-0.25242954 0.1647642 0.90777367
-0.25239652 0.16721676 0.90765488
-0.26234594 0.17219974 0.90783805
-0.25988337 0.17468247 0.90788019
-0.28694302 0.18447699 0.90736651
-0.26217654 0.18445367 0.90725183
-0.18299708 0.18441062 0.90704012
-0.18302728 0.18691391 0.90718979
-0.26959297 0.19187085 0.90724295
-0.18560708 0.19939306 0.90771282
-0.18552808 0.20178144 0.90732652
-0.18797536 0.20669934 0.90720123
-0.18798061 0.21412398 0.90722656
-0.1881378 0.21925308 0.90798521
-0.25510693 0.15003686 0.90849632
-0.2550351 0.15247034 0.90824056
-0.257617 0.15748669 0.90861505
-0.26015106 0.15999869 0.90881532
-0.25254709 0.15988973 0.90819639
-0.25992328 0.16975906 0.9080196
-0.26262438 0.17733701 0.90880156
-0.26011544 0.17979236 0.90869093
-0.1882299 0.22183664 0.90842968
-0.26042101 0.15768485 0.90975833
-0.26276746 0.17495503 0.90929675
-0.25051516 0.17505333 0.90980762
-0.25051716 0.17753474 0.90981495
-0.26289725 0.1824809 0.90974587
-0.26773065 0.19230951 0.90931708
-0.1859445 0.20967066 0.90936297
-0.18854165 0.2122827 0.90993422
-0.26071316 0.15041384 0.910779
-0.2581844 0.15038697 0.91061634
-0.25566617 0.15532947 0.91048795
-0.25824681 0.17525128 0.9108364
-0.26567808 0.18020526 0.91077775
-0.28557596 0.18767735 0.91089517
-0.26304832 0.18754825 0.9102686
-0.28054756 0.19011796 0.91069233
-0.18625495 0.20505489 0.91088122
-0.18863322 0.21734889 0.91037619
-0.25592586 0.17039345 0.91141284
-0.25347304 0.17041464 0.9115262
-0.28827885 0.17539638 0.91159064
-0.25833291 0.17779331 0.91114002
-0.18640332 0.20770313 0.91160685
-0.26379755 0.17066425 0.91286129
-0.26607373 0.18295994 0.91213405
-0.27876338 0.19059534 0.91297907
-0.27110249 0.19045836 0.91232288
-0.18659066 0.21537405 0.91252303
-0.25913277 0.15592201 0.91396123
-0.26404485 0.16833359 0.91371703
-0.2565726 0.17331469 0.91371602
-0.26157102 0.18328924 0.9137758
-0.18682817 0.21315764 0.91368455
-0.18669848 0.22047617 0.91305035
-0.25430006 0.17346345 0.9145003
-0.27441114 0.19103046 0.91506332
-0.18730791 0.2186989 0.91603076
-0.18561283 0.21714 0.92000526
-0.18569234 0.2197419 0.92039937
