# .PCD v0.7 - Point Cloud Data file format
VERSION 0.7
FIELDS x y z
SIZE 4 4 4
TYPE F F F
COUNT 1 1 1
WIDTH 1096
HEIGHT 1
VIEWPOINT 0 0 0 1 0 0 0
POINTS 1096
DATA ascii
-0.20112005 0.13464878 0.85779381
-0.20595808 0.13475452 0.85846746
-0.20355096 0.13471015 0.8581847
-0.199091 0.13485821 0.85912794
-0.20384583 0.13959061 0.85942787
-0.20152545 0.13960604 0.85952288
-0.20891039 0.13515063 0.86099082
-0.19711091 0.13510615 0.86070752
-0.20654507 0.1374853 0.86091411
-0.20418064 0.13747337 0.86083943
-0.20172565 0.13739948 0.86037678
-0.19949311 0.13747716 0.86086315
-0.20655397 0.13983802 0.86095119
-0.19944389 0.13978922 0.86065072
-0.19733407 0.13995673 0.861682
-0.20428146 0.14458427 0.86126453
-0.21396185 0.13537689 0.8624323
-0.2115391 0.1353309 0.86213928
-0.2092513 0.13772193 0.86239582
-0.19746451 0.13769889 0.86225158
-0.21636756 0.14011411 0.86265099
-0.21392252 0.14005284 0.86227375
-0.21167158 0.1401187 0.86267918
-0.20938762 0.14016391 0.8629576
-0.20462047 0.14247264 0.86269379
-0.22359484 0.13551603 0.86331874
-0.22131892 0.1355634 0.86362052
-0.21895736 0.13555878 0.86359107
-0.21653615 0.13551673 0.86332315
-0.21430403 0.13794801 0.86381155
-0.21182975 0.13787012 0.86332381
-0.20257425 0.14268772 0.86399615
-0.20237884 0.1449029 0.86316264
-0.20251763 0.15442012 0.86375463
-0.19552769 0.13563539 0.86407912
-0.21692483 0.13811749 0.86487281
-0.19571064 0.1404774 0.86488765
-0.20735107 0.14273354 0.86427367
-0.21693182 0.14519468 0.86490065
-0.20740075 0.14512418 0.86448073
-0.20269206 0.1592661 0.86449856
-0.22646903 0.13582847 0.86530906
-0.19345988 0.13583729 0.86536527
-0.19587278 0.13823429 0.86560416
-0.21239415 0.14295657 0.86562407
-0.20056857 0.14293674 0.86550403
-0.214745 0.14531022 0.86558896
-0.20046236 0.14521901 0.86504567
-0.20764811 0.15001577 0.86551178
-0.20534378 0.15005592 0.86574334
-0.20764492 0.15473188 0.86549848
-0.20522167 0.15468362 0.86522847
-0.22922291 0.13606304 0.86680347
-0.19143292 0.1360732 0.8668682
-0.21957844 0.14066468 0.86604071
-0.19377445 0.14078352 0.86677235
-0.21743301 0.14316709 0.86689889
-0.21494028 0.14308076 0.8663761
-0.21013522 0.14302504 0.86603874
-0.21976332 0.14550847 0.86676991
-0.21250097 0.1453892 0.86605942
-0.21033566 0.1455244 0.8668648
-0.20558316 0.1478682 0.86675251
-0.2197943 0.15025501 0.86689204
-0.21740521 0.15023699 0.86678809
-0.21256512 0.15015601 0.86632085
-0.21034238 0.15025508 0.86689252
-0.20313582 0.15016821 0.86639124
-0.20090157 0.15026349 0.86694098
-0.20785578 0.15252741 0.86637735
-0.20325057 0.15734197 0.86688066
-0.20543395 0.15956545 0.8661235
-0.20325233 0.16443233 0.86688817
-0.22468461 0.13854125 0.86752641
-0.22236186 0.13856743 0.86769027
-0.21987924 0.13849345 0.86722708
-0.19393107 0.13853271 0.86747295
-0.2271648 0.14097765 0.86796755
-0.22236815 0.1409366 0.86771482
-0.19855691 0.14318739 0.86702174
-0.19857785 0.14556609 0.86711311
-0.20335281 0.14796445 0.86731672
-0.20814139 0.14800729 0.86756784
-0.21509652 0.15027474 0.86700588
-0.20573358 0.15270512 0.86738676
-0.2129263 0.15514207 0.86779284
-0.21042627 0.15504293 0.86723828
-0.20096529 0.15503892 0.86721593
-0.20347229 0.16224471 0.86782628
-0.18934692 0.13627252 0.86813796
-0.22727522 0.13867907 0.86838943
-0.22482377 0.14099327 0.86806375
-0.22027963 0.14821856 0.86880624
-0.21773624 0.14809942 0.86810791
-0.21319471 0.1482323 0.86888677
-0.20133466 0.14821918 0.86880988
-0.19889434 0.15053286 0.86849511
-0.2131709 0.1529521 0.86878973
-0.21069501 0.15287396 0.86834586
-0.20364386 0.15291132 0.86855805
-0.20594431 0.15759508 0.86827523
-0.20117198 0.15993103 0.86810786
-0.20588531 0.16464823 0.86802644
-0.20136632 0.16482276 0.86894649
-0.1873087 0.13651168 0.86966163
-0.19196622 0.1388218 0.86928314
-0.23004851 0.14129566 0.86992544
-0.19191653 0.14115477 0.86905807
-0.22048381 0.1436151 0.86961156
-0.19680697 0.14363506 0.8697325
-0.22278939 0.14594305 0.86935854
-0.19680777 0.14600642 0.86973608
-0.21560468 0.14826085 0.86905414
-0.21088126 0.14827096 0.86911345
-0.22515003 0.15067643 0.86932343
-0.22270806 0.15062751 0.8690412
-0.21814094 0.15311614 0.86972141
-0.20155498 0.15312304 0.86976063
-0.21813446 0.15548223 0.8696956
-0.21570304 0.15543844 0.86945063
-0.20860417 0.15781681 0.86949682
-0.2015629 0.15787089 0.86979479
-0.20849012 0.16009934 0.86902142
-0.20621835 0.16254464 0.86943054
-0.20152341 0.16258088 0.86962438
-0.20860024 0.16492403 0.86948043
-0.20392382 0.17445879 0.86975217
-0.23264441 0.13668507 0.87076622
-0.23022385 0.13903028 0.87058854
-0.25399762 0.14142725 0.87073565
-0.22795419 0.14621587 0.87098372
-0.19935764 0.14851062 0.87051821
-0.19692525 0.15083794 0.87025523
-0.2206002 0.15317762 0.87007064
-0.21587327 0.15318926 0.8701368
-0.22070694 0.15562455 0.87049162
-0.21115422 0.15795141 0.87023842
-0.21359299 0.16037357 0.87050998
-0.2111278 0.16030349 0.87012953
-0.19945633 0.16045448 0.87094915
-0.20657481 0.16994768 0.87093341
-0.20409179 0.17934801 0.87046856
-0.19003189 0.13439052 0.87127846
-0.18779513 0.13448949 0.87192017
-0.18529901 0.13677807 0.87135863
-0.26139307 0.13920021 0.87165266
-0.25408185 0.13909987 0.87102437
-0.19014642 0.13922431 0.87180352
-0.1900931 0.14156099 0.87155908
-0.26128608 0.14389326 0.87129587
-0.25909013 0.14399277 0.87189847
-0.22818911 0.14398994 0.87188131
-0.22321427 0.14384712 0.8710165
-0.19493306 0.14400209 0.87195492
-0.22567572 0.14627789 0.87135315
-0.22336207 0.14869402 0.87159324
-0.22333282 0.15580109 0.87147909
-0.19951633 0.15575318 0.87121111
-0.2138686 0.15820459 0.87163329
-0.20916191 0.16299164 0.87182152
-0.20422354 0.16996662 0.87103051
-0.20916343 0.17012222 0.8718279
-0.20205781 0.17014225 0.87193048
-0.20660163 0.17471841 0.87104648
-0.20193303 0.17478772 0.87139201
-0.20679346 0.17963372 0.87185526
-0.23064061 0.13452718 0.87216449
-0.22602352 0.13460918 0.87269604
-0.19263701 0.13455127 0.87232065
-0.2355285 0.13698199 0.87265772
-0.22587353 0.14402886 0.87211692
-0.19496442 0.14640246 0.87209523
-0.2260568 0.14890409 0.87282455
-0.1974512 0.14886229 0.87257951
-0.2235913 0.15360315 0.87248772
-0.19972056 0.1535354 0.87210292
-0.22601759 0.15601456 0.87267315
-0.19752187 0.15605366 0.87289184
-0.21636024 0.16066644 0.87209964
-0.19740973 0.16072109 0.87239629
-0.21170251 0.16549642 0.8724981
-0.20458695 0.16789056 0.87258047
-0.20459341 0.1774102 0.87260795
-0.20219195 0.17976847 0.8725093
-0.23586129 0.13479345 0.87389076
-0.23338982 0.13474186 0.87355626
-0.22851886 0.13467784 0.87314123
-0.20233007 0.13467231 0.87310535
-0.20000908 0.13471201 0.87336278
-0.1952679 0.13472588 0.87345272
-0.18339345 0.13712922 0.87359565
-0.23328352 0.14182074 0.87315834
-0.23111968 0.14433588 0.87397605
-0.19297294 0.14431372 0.87384188
-0.26667759 0.14662096 0.87339681
-0.23099929 0.14664179 0.87352085
-0.19290659 0.14664523 0.87354141
-0.22867343 0.15144052 0.87373179
-0.19518648 0.15132903 0.87308854
-0.22615258 0.15372756 0.8731944
-0.19768567 0.15380174 0.87361574
-0.21904755 0.15851364 0.87333602
-0.21659605 0.15846175 0.87305015
-0.20012461 0.15861005 0.87386721
-0.21910055 0.16093314 0.87354732
-0.21444225 0.16339354 0.87397122
-0.22153391 0.1657345 0.87375325
-0.21426088 0.16563563 0.87323201
-0.19995765 0.16561784 0.87313819
-0.19768958 0.16571169 0.87363297
-0.20707081 0.16797601 0.87302458
-0.20953679 0.16804519 0.87338412
-0.20247595 0.16811267 0.87373483
-0.21198165 0.17047749 0.87364852
-0.19994152 0.17036416 0.87306774
-0.19774388 0.17052127 0.87387294
-0.20723906 0.17287582 0.87373394
-0.20477079 0.17280272 0.87336451
-0.20946737 0.17512926 0.87309474
-0.20005602 0.17522413 0.8735677
-0.22419454 0.13494012 0.87484163
-0.19795291 0.13493319 0.87479669
-0.18589501 0.13483518 0.8741613
-0.23370174 0.13969064 0.87472367
-0.18826349 0.13959019 0.87409467
-0.18833078 0.14202358 0.87440711
-0.19076173 0.14682709 0.87462467
-0.19316681 0.15161175 0.87471974
-0.22890046 0.15635891 0.87459928
-0.19544773 0.15629774 0.87425715
-0.22178109 0.15876631 0.87472814
-0.22648448 0.1611042 0.87447584
-0.22399935 0.16103128 0.87408
-0.22170319 0.16109407 0.87442088
-0.19560836 0.16119628 0.87497562
-0.21213283 0.16344969 0.87427157
-0.20033278 0.16354404 0.87477624
-0.22406083 0.16584198 0.87431991
-0.21931198 0.16585533 0.8743903
-0.21691276 0.16584329 0.87432677
-0.20037439 0.16834801 0.87495798
-0.22180432 0.17070605 0.87481982
-0.21931714 0.17062625 0.87441087
-0.21684541 0.17055686 0.87405527
-0.20988078 0.17309029 0.87481797
-0.20269307 0.17306139 0.87467182
-0.20735924 0.17774215 0.87424064
-0.20264074 0.17778389 0.87444597
-0.209869 0.18023401 0.87476879
-0.20038389 0.18028152 0.8749994
-0.25764918 0.13736166 0.87507647
-0.25303492 0.1422202 0.87561768
-0.25770998 0.14455172 0.875283
-0.19092116 0.14456372 0.87535566
-0.23394962 0.14699946 0.87565148
-0.2290788 0.14932311 0.87528068
-0.19577563 0.1493987 0.87572384
-0.19575021 0.15415286 0.87561011
-0.19343396 0.15659672 0.87592947
-0.19821343 0.15898772 0.87594795
-0.21962173 0.16370277 0.87562525
-0.21713604 0.16362827 0.87522674
-0.19807814 0.16365133 0.87535012
-0.19564027 0.16599344 0.87511837
-0.21233009 0.16837236 0.87508458
-0.21470495 0.17074937 0.87504184
-0.19583374 0.17093319 0.87598383
-0.21730387 0.17330502 0.87590319
-0.20057026 0.17328721 0.87581319
-0.2195082 0.17554605 0.87517262
-0.21710859 0.17553471 0.87511611
-0.21477263 0.17557515 0.87531769
-0.21247116 0.17564501 0.87566596
-0.21015008 0.17808773 0.87594038
-0.21010202 0.1852084 0.87574011
-0.20766459 0.18516354 0.87552804
-0.20533328 0.18521336 0.8757636
-0.20050786 0.18516624 0.87554079
-0.18402115 0.13520914 0.87658572
-0.26049119 0.13760291 0.87661338
-0.18630347 0.13990755 0.876082
-0.23665655 0.14002816 0.87683725
-0.23655602 0.1423578 0.87646484
-0.18628912 0.14228466 0.87601453
-0.23428318 0.14481877 0.87689996
-0.18884903 0.1471945 0.87681329
-0.23177947 0.15191531 0.8764711
-0.19113347 0.1518907 0.87632906
-0.22455797 0.15904431 0.8762598
-0.22929299 0.16140324 0.87609905
-0.19361594 0.16152382 0.87675357
-0.22454032 0.16380854 0.87619096
-0.2222553 0.16388473 0.87659854
-0.22707541 0.16630435 0.8767575
-0.1935437 0.16624156 0.87642646
-0.19838546 0.16868477 0.87670821
-0.21988347 0.1734565 0.87666881
-0.21518229 0.17351952 0.87698728
-0.2127302 0.17346931 0.87673354
-0.22467835 0.17585835 0.87672955
-0.22225894 0.17583494 0.87661284
-0.19839585 0.17586328 0.87675416
-0.20076482 0.17823459 0.87666279
-0.19845039 0.18069272 0.87699515
-0.20783021 0.18292275 0.87622625
-0.20547052 0.18294835 0.87634891
-0.21037021 0.18305463 0.87685794
-0.20301692 0.185278 0.87606925
-0.19828697 0.18532108 0.87627298
-0.20790349 0.18776584 0.87653524
-0.20539489 0.19243266 0.87602639
-0.20310275 0.19730149 0.87643963
-0.18183301 0.13775107 0.87755722
-0.26539445 0.14005798 0.87702394
-0.25345743 0.14006689 0.87707973
-0.18424638 0.14015934 0.87765861
-0.18429755 0.14259128 0.87790233
-0.25588357 0.14486848 0.87720096
-0.23203985 0.14969416 0.87745571
-0.19374216 0.14967188 0.87732512
-0.22969888 0.15451196 0.8776499
-0.19382939 0.15452433 0.87772012
-0.23213719 0.15693538 0.87782377
-0.22735278 0.15932903 0.87782842
-0.19617377 0.15927029 0.87750477
-0.19610815 0.16399927 0.87721121
-0.22727698 0.16405995 0.87753576
-0.22248119 0.16883509 0.87748945
-0.22014296 0.16887626 0.87770343
-0.21758719 0.16874962 0.87704521
-0.2152112 0.16876112 0.87710506
-0.19614652 0.16881458 0.87738287
-0.19858858 0.17364191 0.87760586
-0.21302679 0.18089066 0.87795591
-0.22010317 0.183198 0.87754476
-0.20581204 0.19043072 0.87780553
-0.208176 0.19279681 0.87768418
-0.20334123 0.1927495 0.87746876
-0.20567454 0.19747698 0.87721914
-0.20099349 0.19757652 0.87766135
-0.23955481 0.13553543 0.87870115
-0.22267452 0.13546614 0.87825197
-0.25638369 0.13796426 0.87891537
-0.2395888 0.1379502 0.87882584
-0.25143489 0.14266661 0.87836611
-0.189114 0.14500763 0.87804359
-0.19154675 0.14982523 0.87822396
-0.1892217 0.15227452 0.87854356
-0.19152793 0.1569915 0.87813765
-0.22990662 0.1594407 0.87844366
-0.1940096 0.16424698 0.87853616
-0.19167297 0.16669227 0.87880266
-0.2250582 0.17136793 0.8782118
-0.22269085 0.17378248 0.87831634
-0.22751202 0.17620209 0.87844324
-0.21320124 0.17864367 0.87867486
-0.22026344 0.1809376 0.87818372
-0.21786514 0.18093386 0.87816554
-0.21546891 0.18093178 0.87815541
-0.22279321 0.18344335 0.87872005
-0.20347038 0.18329848 0.87802607
-0.20114416 0.18335968 0.8783192
-0.19886757 0.18346815 0.87883878
-0.19635841 0.18575627 0.87833071
-0.21064578 0.18808103 0.87800658
-0.27312902 0.19304949 0.87883449
-0.20128351 0.19306998 0.87892771
-0.27302039 0.19536732 0.8784849
-0.20606261 0.19545391 0.8788743
-0.20348774 0.19528194 0.87810099
-0.20829658 0.1976961 0.87819254
-0.20608468 0.20266263 0.87896842
-0.18215363 0.13559766 0.87910455
-0.18231983 0.14051835 0.87990671
-0.2494427 0.14289695 0.87978429
-0.1822478 0.14286038 0.8795591
-0.18700951 0.14762911 0.87940216
-0.18948027 0.15008457 0.87974411
-0.23257405 0.15483341 0.87947577
-0.19174029 0.15476924 0.87911129
-0.19414209 0.15956639 0.87913615
-0.23249154 0.16196786 0.87916374
-0.23018666 0.16682714 0.87951368
-0.22543086 0.16925386 0.87966597
-0.19421464 0.16921513 0.87946469
-0.1941177 0.17152674 0.8790257
-0.22548299 0.17408976 0.87986934
-0.19669738 0.17408532 0.87984693
-0.21582824 0.17883581 0.8796199
-0.19672148 0.1813025 0.87995476
-0.21590535 0.18369681 0.87993413
-0.21331689 0.18353342 0.87915146
-0.22061512 0.18841933 0.87958586
-0.21820952 0.18841243 0.87955368
-0.2062099 0.18840146 0.87950248
-0.20382257 0.18841074 0.87954581
-0.20136273 0.18835245 0.87927365
-0.20860662 0.19079824 0.87949967
-0.20378383 0.190772 0.87937868
-0.19904453 0.19082451 0.87962079
-0.21574202 0.19314483 0.87926847
-0.21093306 0.19313066 0.87920398
-0.20131087 0.19549237 0.87904721
-0.21339682 0.19798614 0.8794809
-0.21090683 0.19789919 0.87909466
-0.20627011 0.20044689 0.87975925
-0.20372099 0.20029838 0.87910748
-0.21100914 0.20279007 0.87952113
-0.20857817 0.20275746 0.87937975
-0.20392506 0.20289773 0.87998807
-0.20620827 0.20757888 0.8794955
-0.20623058 0.21239659 0.87959069
-0.20383877 0.21240264 0.87961572
-0.23771004 0.13344924 0.88074058
-0.18011776 0.13586955 0.88086724
-0.17997977 0.13816471 0.8801924
-0.23769279 0.14544249 0.88067669
-0.18716268 0.14535096 0.88012248
-0.23754008 0.14774808 0.88011086
-0.18719764 0.15257667 0.88028681
-0.18967475 0.15744011 0.88064706
-0.23276226 0.15975721 0.88018751
-0.19200754 0.16218394 0.88033664
-0.23037408 0.16456361 0.88022977
-0.18964145 0.1670128 0.88049245
-0.22806211 0.17182755 0.88056719
-0.19683573 0.17660779 0.88046581
-0.21838291 0.17896444 0.8802526
-0.19916934 0.17894813 0.88017237
-0.22087371 0.17903851 0.8806169
-0.22560377 0.18138202 0.8803407
-0.22315788 0.18134445 0.88015836
-0.2256826 0.18384591 0.88064831
-0.21832894 0.18371788 0.88003504
-0.19675423 0.1837317 0.88010126
-0.2809467 0.18628119 0.88081276
-0.21366122 0.18622997 0.88057059
-0.27853581 0.18867542 0.88078135
-0.21593335 0.18851839 0.88004827
-0.21364745 0.18861811 0.88051385
-0.19926974 0.18864001 0.88061607
-0.19691829 0.19108795 0.88083512
-0.27844125 0.19341147 0.88048232
-0.27117318 0.19336306 0.8802619
-0.21848172 0.1934485 0.88065088
-0.21355657 0.19333611 0.88013929
-0.19930573 0.19347578 0.88077509
-0.27612746 0.19587271 0.88075745
-0.21605478 0.19822527 0.88054317
-0.19928163 0.19825351 0.88066864
-0.20157196 0.20054439 0.88018721
-0.20396143 0.20773219 0.88014507
-0.2016928 0.2078667 0.88071495
-0.2065506 0.21032484 0.88095558
-0.20411652 0.2102911 0.88081431
-0.20895109 0.2127253 0.88095194
-0.20166855 0.21264249 0.88060904
-0.24028546 0.13354632 0.88138121
-0.18014671 0.13348989 0.88100886
-0.24753939 0.14318319 0.88154656
-0.24036168 0.14320174 0.88166082
-0.25469965 0.14555836 0.88137835
-0.23562767 0.15045786 0.88193226
-0.23548153 0.15276706 0.88138527
-0.18986924 0.15519859 0.88155007
-0.23562579 0.15766862 0.88192523
-0.18977834 0.16232973 0.88112807
-0.18754175 0.16247287 0.88190502
-0.19232337 0.1648543 0.88178468
-0.18755013 0.16728821 0.88194442
-0.2284316 0.16970176 0.88199383
-0.19236943 0.16970214 0.88199586
-0.1923593 0.17209727 0.88194942
-0.2282322 0.17435779 0.88122398
-0.23074342 0.17684349 0.88164097
-0.22580391 0.17914113 0.88112164
-0.22359671 0.17929718 0.88188916
-0.2211092 0.18643832 0.88155574
-0.21864741 0.18638819 0.88131869
-0.21638083 0.18650521 0.881872
-0.22347626 0.18881096 0.88141412
-0.27864197 0.19114912 0.88111705
-0.21871892 0.19125539 0.88160694
-0.21618502 0.19113976 0.88107395
-0.21144682 0.19119866 0.88134545
-0.20188656 0.19124544 0.88156104
-0.19476217 0.19132853 0.88194406
-0.2668207 0.19368711 0.88173717
-0.19701803 0.19358696 0.88128126
-0.20902796 0.19598804 0.88127607
-0.21633887 0.19608255 0.88170099
-0.21385799 0.19601151 0.88138157
-0.21872908 0.19847396 0.88164788
-0.21640551 0.20095117 0.88197255
-0.21391074 0.20086604 0.88159895
-0.21153659 0.20089354 0.88171959
-0.20897163 0.20073837 0.88103861
-0.21383961 0.20320156 0.88130581
-0.20176215 0.20313513 0.88101774
-0.20660841 0.20557967 0.88120216
-0.20437533 0.20574974 0.88193113
-0.20902291 0.2079941 0.88125479
-0.21149181 0.20805976 0.88153297
-0.20177077 0.21034865 0.88105536
-0.21155882 0.21293305 0.88181227
-0.20434177 0.21533038 0.88178629
-0.20426813 0.21765552 0.88146853
-0.24295753 0.13369466 0.88236028
-0.18283825 0.133702 0.88240862
-0.25249135 0.1408617 0.88205677
-0.24067552 0.14098233 0.88281202
-0.18043564 0.14092001 0.88242185
-0.18052992 0.14340025 0.88288295
-0.25275552 0.14582281 0.88297963
-0.25012106 0.14569023 0.88217688
-0.18533336 0.14579916 0.88283646
-0.2479313 0.1482234 0.88294226
-0.18517779 0.14808123 0.8820954
-0.18761222 0.15050974 0.88223636
-0.18520023 0.15290867 0.88220227
-0.18764745 0.15534858 0.88240206
-0.18761128 0.15772346 0.88223195
-0.19241601 0.1601242 0.88220942
-0.18519953 0.16252702 0.88219893
-0.19011755 0.16502598 0.88270295
-0.23109211 0.17229705 0.88297325
-0.19017111 0.17229283 0.88295162
-0.19494064 0.17466016 0.88275224
-0.19482027 0.17695707 0.88220716
-0.28157732 0.17707396 0.88278985
-0.22849151 0.1793655 0.88222522
-0.19724846 0.17938313 0.88231194
-0.19478984 0.18173818 0.88206935
-0.22369723 0.1865927 0.88228565
-0.19725904 0.18901344 0.88235933
-0.21401219 0.19134437 0.88201708
-0.26943538 0.19383906 0.88242888
-0.26452604 0.19376682 0.88209999
-0.26233742 0.19392638 0.88282639
-0.22126871 0.19378696 0.88219172
-0.21160938 0.19615416 0.88202304
-0.19960222 0.19616802 0.88208532
-0.26947573 0.19867952 0.88256103
-0.26712695 0.19872189 0.8827492
-0.21641502 0.20336422 0.88201129
-0.21181898 0.205975 0.88289666
-0.20939238 0.20595536 0.8828125
-0.20199591 0.20577478 0.88203847
-0.19976749 0.20836252 0.88281572
-0.21664177 0.21320426 0.88293546
-0.19974248 0.21314867 0.88270521
-0.20687915 0.21546972 0.88235688
-0.20681269 0.21780489 0.88207346
-0.20941895 0.21801503 0.8829245
-0.21174836 0.22274716 0.88260233
-0.20931752 0.22272055 0.88249689
-0.20686282 0.22266763 0.8822872
-0.20451589 0.22273085 0.88253766
-0.23614441 0.13392286 0.88386637
-0.18553101 0.13390948 0.88377798
-0.17818207 0.13381797 0.88317412
-0.24318235 0.13622577 0.88317674
-0.24323152 0.13866121 0.88335532
-0.24572235 0.14352542 0.88365358
-0.24817722 0.14596127 0.88381803
-0.24573395 0.14834982 0.8836953
-0.23843841 0.15312308 0.8834393
-0.18303144 0.15310605 0.88334101
-0.18549649 0.15797046 0.88361353
-0.19026569 0.16033861 0.88339078
-0.23615766 0.16284335 0.88391596
-0.23370078 0.16521922 0.88373649
-0.18792421 0.16521303 0.88370347
-0.1902566 0.16996241 0.88334852
-0.27932453 0.179579 0.88327539
-0.28175595 0.19163351 0.8833499
-0.22160338 0.19167171 0.88352603
-0.26260787 0.19653523 0.88373655
-0.21919765 0.19649076 0.88353658
-0.19754493 0.19651335 0.88363814
-0.22150208 0.19880584 0.88312215
-0.19741791 0.19879411 0.88306999
-0.272324 0.19900292 0.88399756
-0.21906526 0.20118594 0.883003
-0.19988833 0.20126496 0.88334978
-0.21910737 0.20363201 0.88317275
-0.19985546 0.20363933 0.88320446
-0.21444589 0.20859589 0.8838045
-0.20957273 0.2109497 0.88357288
-0.20002127 0.2110367 0.88393724
-0.21441239 0.21338078 0.88366646
-0.2095544 0.21574777 0.88349557
-0.20231315 0.21573023 0.88342375
-0.20238963 0.21822077 0.88375771
-0.21430281 0.22290173 0.88321477
-0.21204945 0.22547314 0.88385731
-0.20960927 0.22543988 0.88372689
-0.2072317 0.22547397 0.88386053
-0.20478953 0.22543775 0.88371855
-0.17849661 0.13887748 0.8847332
-0.18329588 0.14609326 0.88461727
-0.25080699 0.14850105 0.88459617
-0.24118151 0.14851311 0.88466799
-0.23860811 0.15082222 0.88406801
-0.18576092 0.15095957 0.88487309
-0.23633549 0.15573229 0.88458157
-0.18576504 0.15578708 0.88489276
-0.18818773 0.1606203 0.88494271
-0.18569715 0.16537493 0.88456941
-0.23377421 0.16768081 0.88401419
-0.23139563 0.17011334 0.88413298
-0.27964148 0.17737238 0.8842777
-0.19299486 0.17748988 0.88486344
-0.23147939 0.17981844 0.88445306
-0.19521689 0.17972697 0.88400316
-0.19296835 0.18228881 0.88474184
-0.19058496 0.18231586 0.88487309
-0.22905074 0.18462586 0.88438439
-0.19531979 0.18705446 0.88446909
-0.22659537 0.1894099 0.88421005
-0.19539738 0.18954065 0.88482046
-0.27728957 0.19187525 0.8844642
-0.26039267 0.19427083 0.88439447
-0.2243318 0.19435737 0.88478839
-0.19537428 0.19434144 0.88471586
-0.22194637 0.19679254 0.88489354
-0.2219463 0.20161663 0.88489324
-0.22186464 0.20395364 0.88456768
-0.21712387 0.20644242 0.88490027
-0.2146451 0.20637831 0.88462549
-0.20017254 0.20637371 0.88460571
-0.22184718 0.20875959 0.88449806
-0.21691407 0.20865272 0.88404524
-0.21222186 0.21118918 0.88457596
-0.2147124 0.21850353 0.88490283
-0.21221644 0.21841723 0.88455331
-0.20734453 0.22077557 0.88434178
-0.20497552 0.22082032 0.88452107
-0.2170354 0.22323611 0.88453972
-0.20245731 0.22311333 0.88405323
-0.21471748 0.22574522 0.88492382
-0.18822084 0.13410954 0.8850984
-0.17862561 0.13656446 0.88537258
-0.25585252 0.13897711 0.88536787
-0.24375242 0.14378424 0.88524711
-0.24627234 0.14626075 0.88563144
-0.24141218 0.14624138 0.88551414
-0.18342188 0.14860667 0.88522536
-0.18347406 0.15588997 0.88547724
-0.23650372 0.16066903 0.88521123
-0.18585309 0.16068736 0.8853122
-0.24617597 0.16309555 0.8852849
-0.18345928 0.16311784 0.8854059
-0.18580282 0.16788159 0.88507271
-0.18837842 0.17044167 0.8858394
-0.18825506 0.17274313 0.88525927
-0.2316352 0.17511447 0.88504833
-0.1931729 0.17523938 0.88567966
-0.19078125 0.17767464 0.88578451
-0.19557059 0.18488063 0.8856048
-0.22683856 0.18720037 0.88515902
-0.22452448 0.19211045 0.88554841
-0.19313753 0.19210374 0.88551748
-0.22453535 0.19936168 0.88559127
-0.19786783 0.20407234 0.88508248
-0.22206531 0.20655148 0.88536775
-0.21964304 0.2065431 0.88533187
-0.2195829 0.20889917 0.88508946
-0.19785756 0.20888668 0.88503653
-0.22456497 0.20904519 0.88570809
-0.21737108 0.21150716 0.88590777
-0.2195828 0.21372429 0.88508904
-0.2123813 0.21617389 0.8852405
-0.21730612 0.21868631 0.88564306
-0.21255489 0.22118057 0.88596404
-0.20997435 0.22100633 0.88526613
-0.20271544 0.22581066 0.88518041
-0.17642231 0.13431102 0.88642812
-0.25139025 0.14159577 0.8866533
-0.17891502 0.14162032 0.88680708
-0.23938474 0.15614848 0.88694555
-0.24642195 0.15842739 0.88616943
-0.18363488 0.15844239 0.8862533
-0.24642618 0.16084573 0.88618469
-0.23697583 0.16824305 0.88697833
-0.23443846 0.17299032 0.88652605
-0.19098298 0.17544544 0.88672113
-0.19329965 0.18018597 0.88626081
-0.22947416 0.18255201 0.88601923
-0.28022066 0.18740131 0.88610911
-0.19338356 0.18751475 0.88664556
-0.19090667 0.18745582 0.88636684
-0.22707909 0.19464496 0.88609761
-0.22484608 0.19722025 0.8868168
-0.26570275 0.19945908 0.88602388
-0.19585332 0.19965297 0.88688517
-0.19812973 0.20192665 0.88625395
-0.19807695 0.20670314 0.88601786
-0.21999128 0.21170478 0.88673556
-0.2150874 0.21163622 0.88644838
-0.22238015 0.2140947 0.88662297
-0.19829506 0.21418417 0.88699353
-0.21759404 0.21655874 0.8868165
-0.21507356 0.21645492 0.88639134
-0.20053397 0.21640891 0.88620293
-0.21995164 0.21891664 0.88657582
-0.2005842 0.21887939 0.88642496
-0.21513201 0.22134739 0.88663226
-0.20304103 0.22133987 0.8866021
-0.20058286 0.2237104 0.886419
-0.2175878 0.22622155 0.88679105
-0.24685581 0.13450824 0.8877297
-0.24423999 0.14165397 0.88701779
-0.17903578 0.14413482 0.88740557
-0.1815704 0.1466472 0.8879714
-0.24429592 0.14894168 0.88722098
-0.18379536 0.15132718 0.88702786
-0.24679036 0.15382592 0.88749433
-0.24447984 0.15389431 0.88788885
-0.18143402 0.15379301 0.88730443
-0.23946321 0.15861812 0.88723624
-0.23717682 0.16596593 0.8877306
-0.18396628 0.16598876 0.88785273
-0.23471624 0.17803405 0.8875764
-0.18880171 0.1780849 0.88782984
-0.19107725 0.18036853 0.88715875
-0.1887957 0.18291925 0.88780165
-0.28052858 0.18518919 0.88708282
-0.19360778 0.18531251 0.88767356
-0.19115278 0.18527825 0.88750947
-0.2297368 0.19001468 0.88703334
-0.25898507 0.1950262 0.88783324
-0.19589843 0.19728087 0.88708937
-0.22739844 0.19975621 0.88734376
-0.2250126 0.20220454 0.88747358
-0.2248977 0.20451917 0.88702041
-0.19600542 0.20464678 0.8875739
-0.22497198 0.20700538 0.88731337
-0.22247882 0.21177183 0.88701642
-0.22010109 0.21664707 0.88717818
-0.22023031 0.22403345 0.88769901
-0.20091842 0.22650492 0.8879019
-0.24708423 0.13947679 0.88855112
-0.24942546 0.14185287 0.88826329
-0.24468525 0.14675677 0.88863486
-0.18165705 0.14913879 0.88839513
-0.24700789 0.1515402 0.88827658
-0.24219865 0.15398271 0.88839895
-0.24472927 0.15889674 0.88879472
-0.24465208 0.16126858 0.8885144
-0.18403108 0.16120523 0.88816547
-0.24937302 0.16360985 0.88807654
-0.24452136 0.16360307 0.88803971
-0.23990898 0.16375932 0.88888788
-0.2470662 0.16610721 0.88848627
-0.24936298 0.16844457 0.88804078
-0.23488738 0.1709004 0.88822359
-0.1865966 0.17102169 0.88885391
-0.18651052 0.17336455 0.88844389
-0.18897715 0.17582805 0.88865489
-0.23502409 0.18069014 0.8887406
-0.28082132 0.18296187 0.88800853
-0.23265919 0.1831581 0.8889609
-0.23248191 0.18543985 0.88828355
-0.23016481 0.18794627 0.88868594
-0.19381922 0.1903595 0.88864303
-0.2592665 0.19281542 0.88879806
-0.22757038 0.19264549 0.88801473
-0.19131662 0.19270091 0.8882702
-0.1936947 0.19507867 0.88807207
-0.22763726 0.19754469 0.88827568
-0.19383028 0.20006011 0.88869375
-0.22775649 0.20491585 0.8887409
-0.19372962 0.20479856 0.88823223
-0.22757903 0.20959754 0.88804841
-0.19611914 0.20960709 0.88808888
-0.22516686 0.21202624 0.88808197
-0.19856089 0.21205026 0.88818264
-0.2252941 0.21456818 0.88858384
-0.2228221 0.21936338 0.88838506
-0.21798244 0.22178856 0.88839942
-0.22539558 0.22435777 0.88898408
-0.22288395 0.22426881 0.88863164
-0.24722816 0.1419815 0.88906872
-0.24987593 0.15181163 0.88986754
-0.24479063 0.15166663 0.88901758
-0.24246688 0.15172893 0.88938284
-0.24747826 0.1566806 0.8899681
-0.24499796 0.15664582 0.88977057
-0.18198004 0.15668178 0.88997477
-0.24987109 0.15908545 0.88985032
-0.18188356 0.15902334 0.88950288
-0.24988243 0.16151837 0.88989067
-0.24499279 0.16634381 0.88975179
-0.247325 0.16870561 0.88941699
-0.18422686 0.16864745 0.88911033
-0.25225559 0.17603591 0.88970542
-0.18914087 0.18082923 0.88942474
-0.18914291 0.18810457 0.8894344
-0.23281729 0.19055699 0.88956499
-0.2304765 0.19305217 0.88988936
-0.23033509 0.19535793 0.88934338
-0.26200482 0.19789924 0.88986993
-0.19409385 0.19790642 0.88990217
-0.23048206 0.20033409 0.88991082
-0.227999 0.2027089 0.88968724
-0.19649269 0.20273012 0.88978034
-0.23045142 0.20515834 0.88979256
-0.19642758 0.20751214 0.88948554
-0.22792615 0.214766 0.88940299
-0.19651845 0.21488529 0.88989705
-0.22307838 0.21719131 0.88940686
-0.22555064 0.21966231 0.88959569
-0.19879556 0.21957257 0.88923228
-0.20137735 0.22217067 0.88993001
-0.19879632 0.22442126 0.88923568
-0.24763598 0.1373608 0.8905353
-0.17722233 0.13977452 0.8904478
-0.18211126 0.15193939 0.89061648
-0.24270934 0.15916088 0.8902722
-0.24034184 0.16162746 0.89049166
-0.24270281 0.16400994 0.89024824
-0.18213408 0.16409834 0.89072806
-0.24997839 0.16643366 0.89023244
-0.24528715 0.16897191 0.89082086
-0.23798798 0.1738178 0.89076668
-0.23543176 0.17615002 0.89028215
-0.18927984 0.18581451 0.89007825
-0.19177747 0.19073798 0.89040989
-0.2573964 0.19323029 0.89071035
-0.1941749 0.20284253 0.89027375
-0.19171278 0.20523141 0.89010954
-0.22815056 0.20769717 0.89027864
-0.23075378 0.21028472 0.89095998
-0.22819611 0.21259311 0.89045638
-0.19897828 0.21734826 0.89004964
-0.19660601 0.21983463 0.89029354
-0.22098936 0.22237752 0.89075857
-0.19656463 0.22464094 0.89010614
-0.17751615 0.13271251 0.89192402
-0.17747878 0.13754603 0.89173627
-0.25527203 0.13998219 0.89177084
-0.17995937 0.14974119 0.89198345
-0.2502827 0.15448834 0.89131612
-0.17985101 0.15451092 0.89144635
-0.24050567 0.16659561 0.89109868
-0.24059841 0.16908978 0.8914423
-0.25021973 0.1714523 0.89109194
-0.23825988 0.17158553 0.89178437
-0.25027269 0.17391807 0.89128053
-0.25285223 0.17402135 0.89180976
-0.18717389 0.17641152 0.89160383
-0.18710552 0.17877656 0.89127815
-0.18708836 0.18361868 0.89119637
-0.2601971 0.1910761 0.89198828
-0.262532 0.19343638 0.89166039
-0.18961026 0.19343023 0.89163202
-0.19205834 0.19587865 0.89171392
-0.23093912 0.19830081 0.89167559
-0.1919748 0.20065269 0.89132607
-0.23088527 0.20311457 0.89146769
-0.19444738 0.20798749 0.89152306
-0.19438779 0.21035315 0.89124984
-0.19697711 0.21295543 0.89197397
-0.22593404 0.21760668 0.89110786
-0.22846043 0.22012953 0.89148784
-0.19451942 0.22021978 0.89185333
-0.22839442 0.22492464 0.89123023
-0.19449018 0.22504807 0.89171928
-0.17512222 0.13517256 0.89211416
-0.25053135 0.14004982 0.89220166
-0.17765751 0.1449841 0.89263439
-0.18000333 0.14734577 0.89220136
-0.24325639 0.1570874 0.89227879
-0.24326706 0.16195893 0.89231795
-0.18244731 0.1619484 0.89225996
-0.24330872 0.16685213 0.89247078
-0.2434191 0.16936165 0.89287561
-0.25302422 0.17900488 0.89241636
-0.25557977 0.1815248 0.89284593
-0.18743761 0.18152767 0.89286005
-0.25535908 0.18623136 0.892075
-0.23359632 0.1887617 0.89254159
-0.25541851 0.19113915 0.89228261
-0.23359732 0.19362837 0.8925454
-0.23356409 0.1960334 0.89241838
-0.19233094 0.20345905 0.89297962
-0.23113787 0.20820209 0.892443
-0.19229876 0.21072613 0.89283013
-0.23115073 0.21551205 0.89249265
-0.19463488 0.21548551 0.89238274
-0.19223666 0.21552394 0.89254189
-0.19699718 0.21784039 0.89206487
-0.22880012 0.21802315 0.89281332
-0.22624314 0.22276907 0.89232695
-0.22380443 0.22276273 0.89230156
-0.19719078 0.22292249 0.89294153
-0.18032242 0.13298911 0.89378291
-0.17780916 0.1426726 0.89339632
-0.18032242 0.1524796 0.89378297
-0.18032722 0.1573564 0.8938067
-0.18276118 0.16709968 0.89379489
-0.185156 0.17436962 0.89359456
-0.25088328 0.17677778 0.89345491
-0.23866384 0.1791814 0.89329636
-0.25327024 0.18161386 0.89328402
-0.23640154 0.18662266 0.89394939
-0.258118 0.18890253 0.89320749
-0.25567532 0.18889666 0.89317971
-0.18755904 0.18895139 0.89343852
-0.18990614 0.19129783 0.89302337
-0.18750101 0.19376215 0.89316207
-0.19251721 0.19878314 0.89384443
-0.19006528 0.19876698 0.89377177
-0.23376785 0.20107386 0.89319694
-0.23393694 0.20609224 0.893843
-0.19251497 0.20852663 0.89383405
-0.23153707 0.21343541 0.89398438
-0.23152858 0.22073787 0.89395154
-0.19238544 0.22056034 0.89323258
-0.1900681 0.22069675 0.893785
-0.22899646 0.22308175 0.89357948
-0.19971599 0.22302434 0.89334947
-0.19487318 0.22305577 0.89347535
-0.19248079 0.22310568 0.89367533
-0.19244811 0.22550341 0.89352357
-0.25363085 0.14041938 0.89455593
-0.25106534 0.15740862 0.89410335
-0.18044333 0.15989566 0.89438224
-0.25374371 0.16975588 0.89495397
-0.18295583 0.1697166 0.89474684
-0.24883616 0.17217563 0.89485133
-0.18524167 0.17201336 0.89400798
-0.2415193 0.17461543 0.89485431
-0.25598902 0.17694014 0.89427555
-0.25613499 0.17948008 0.89478546
-0.23648793 0.1842532 0.89427602
-0.18769898 0.18665516 0.89410508
-0.23646115 0.19154447 0.89417475
-0.19025822 0.19653 0.89467907
-0.19032189 0.20147491 0.89497846
-0.23422666 0.20390798 0.89494997
-0.1901409 0.2110323 0.89412737
-0.19509226 0.2135537 0.89447981
-0.19269985 0.21360445 0.89469242
-0.23172154 0.21848305 0.89469659
-0.19502538 0.21835522 0.89417315
-0.19260316 0.2183724 0.89424348
-0.1878621 0.22096765 0.89488208
-0.25378394 0.17222267 0.89509583
-0.24163117 0.17225595 0.89526874
-0.23914161 0.17710023 0.89508462
-0.18562341 0.17725173 0.8958503
-0.18545657 0.17953217 0.89504516
-0.23916754 0.18199967 0.89518166
-0.25646603 0.18459645 0.89594197
-0.25880051 0.18696082 0.89556921
-0.26596448 0.19416788 0.89503229
-0.23693608 0.19437146 0.8959707
-0.23433384 0.19912007 0.89535952
-0.23431849 0.21130927 0.89530087
-0.19033255 0.2161244 0.89502853
-0.19045389 0.22358596 0.89559913
-0.17838059 0.15046036 0.89626747
-0.18095002 0.16523422 0.89689368
-0.24686614 0.17250349 0.8965553
-0.18815552 0.1919954 0.89627981
-0.23714675 0.19698873 0.89676738
-0.18827277 0.19944896 0.89683837
-0.19065148 0.20671138 0.8965283
-0.19074392 0.21414655 0.89696306
-0.19061725 0.21889105 0.89636737
-0.23226538 0.22388487 0.89679641
-0.17857607 0.14817947 0.89724958
-0.18110363 0.16292763 0.89765507
-0.25457296 0.1654157 0.89787871
-0.24474573 0.17273177 0.89774179
-0.24234736 0.1776617 0.89792234
-0.2521503 0.18011826 0.8979671
-0.18601792 0.18252271 0.89775431
-0.18596989 0.1849221 0.89752251
-0.25438911 0.1873076 0.89723027
-0.23724853 0.1897368 0.89715225
-0.18595524 0.19469278 0.89745182
-0.18840882 0.19714668 0.89748645
-0.23480366 0.20930129 0.89715463
-0.18850854 0.21193722 0.89796144
-0.23498751 0.21680743 0.89785713
-0.17632282 0.13854772 0.89823031
-0.17642973 0.14108163 0.89877492
-0.17879803 0.15571007 0.89836484
-0.18374425 0.1728974 0.8986026
-0.18378808 0.17538868 0.89881694
-0.24248016 0.18020798 0.89841437
-0.25465366 0.18505414 0.89816338
-0.24017127 0.18521385 0.89893854
-0.24004981 0.18756931 0.89848393
-0.18621178 0.190062 0.89868993
-0.23773004 0.20237416 0.89897311
-0.18866618 0.20231548 0.8987124
-0.19102272 0.20466535 0.89827406
-0.19103648 0.20957755 0.89833874
-0.18852124 0.21929508 0.89802194
-0.23527685 0.22197522 0.89896262
-0.18860281 0.22428782 0.8984105
-0.17651092 0.14604864 0.89918852
-0.17902508 0.1534559 0.89950567
-0.1789726 0.16076447 0.89924198
-0.25492445 0.16809495 0.89911842
-0.18142913 0.16812299 0.89926845
-0.18145396 0.17059758 0.89939147
-0.25756809 0.17557892 0.8997919
-0.25008926 0.17549419 0.89935768
-0.24532253 0.17559172 0.89985752
-0.23797321 0.2001282 0.89989263
-0.23793668 0.20745523 0.89975446
-0.18886612 0.20743456 0.89966482
-0.23534684 0.21468779 0.89923006
-0.18411754 0.18061194 0.90042824
-0.18654148 0.18794449 0.90028113
-0.24051128 0.19283755 0.90021116
-0.18662977 0.19294381 0.90070719
-0.18664591 0.19787128 0.90078509
-0.18662789 0.20030734 0.90069813
-0.2381001 0.20514345 0.90037245
-0.23565629 0.21987885 0.90041244
-0.1768847 0.14390168 0.90109265
-0.1770431 0.15140584 0.90189952
-0.17934479 0.15864252 0.90111202
-0.18428551 0.17832004 0.90124965
-0.26043722 0.18322998 0.90123302
-0.18443811 0.1858438 0.90199596
-0.24085687 0.19065729 0.9015047
-0.18927552 0.21034187 0.90161496
-0.2384695 0.21283597 0.90176934
-0.18920612 0.21763502 0.9012844
-0.17710783 0.14900187 0.90222931
-0.17968044 0.16632207 0.90279847
-0.24840263 0.17603622 0.90213543
-0.25340155 0.18347195 0.90242314
-0.24349473 0.18342118 0.90217346
-0.18451999 0.18346651 0.90239638
-0.26085129 0.18598181 0.90266585
-0.25592253 0.19089709 0.90263861
-0.18954843 0.20572275 0.902915
-0.18710254 0.21312378 0.90298885
-0.17493378 0.13939187 0.90370309
-0.17977054 0.16394335 0.90325117
-0.18466894 0.19099993 0.90312487
-0.18466328 0.19591747 0.90309715
-0.18961838 0.21564712 0.90324819
-0.17759667 0.15681151 0.90471959
-0.18000378 0.17155199 0.90442306
-0.18242495 0.17397521 0.90420431
-0.24663503 0.17899714 0.90467185
-0.18498698 0.18886285 0.90468019
-0.18732388 0.20351866 0.90405709
-0.18734521 0.20847102 0.90416002
-0.23924746 0.2184625 0.90471119
-0.18743847 0.22336975 0.90461016
-0.17769422 0.15443017 0.90521652
-0.18268611 0.17669252 0.90549874
-0.18278639 0.18172871 0.90599579
-0.18519613 0.2014204 0.90570307
-0.23953941 0.21625997 0.90581518
-0.18751942 0.21853243 0.90500081
-0.23935515 0.22349524 0.90511841
-0.18037835 0.16943853 0.90630507
-0.18297178 0.18685722 0.90691465
-0.18533343 0.19415782 0.90637451
-0.18783477 0.21148683 0.90652275
-0.18317479 0.17964001 0.90792096
-0.18311097 0.18452539 0.90760458
-0.1831864 0.19202641 0.90797848
-0.18546277 0.19923805 0.9070071
-0.18796939 0.20669279 0.90717244
-0.18795899 0.21657202 0.90712219
-0.23997773 0.22160293 0.90747267
-0.18813282 0.22172223 0.90796119
-0.18089326 0.17487721 0.90889227
-0.18333785 0.18970811 0.90872914
-0.18594241 0.20966831 0.90935278
-0.18597591 0.21466446 0.90951657
-0.18618326 0.20497596 0.91053063
-0.18627137 0.21997178 0.91096151
-0.18398224 0.19534642 0.91192311
-0.18392938 0.19777533 0.91166115
-0.18632324 0.2076139 0.91121519
-0.1866221 0.21292253 0.91267675
-0.18661883 0.21789433 0.91266078
-0.18429396 0.20314729 0.91346818
-0.18484679 0.22123873 0.91620833
-0.18510178 0.21154039 0.91747218
-0.18544225 0.21694048 0.91915983
-0.18551414 0.21953101 0.91951609
-0.18577449 0.21481916 0.92080659
