# .PCD v0.7 - Point Cloud Data file format
VERSION 0.7
FIELDS x y z
SIZE 4 4 4
TYPE F F F
COUNT 1 1 1
WIDTH 1139
HEIGHT 1
VIEWPOINT 0 0 0 1 0 0 0
POINTS 1139
DATA ascii
-0.20307393 0.13439444 0.85617346
-0.20081668 0.13444568 0.85649991
-0.20581058 0.13465802 0.85785264
-0.19869681 0.13459119 0.85742688
-0.20373839 0.13951704 0.85897487
-0.20376949 0.13719654 0.859106
-0.20154212 0.13727447 0.85959399
-0.20154163 0.13961725 0.8595919
-0.19714196 0.13512744 0.86084312
-0.20649166 0.13744976 0.86069155
-0.19949637 0.13747941 0.86087722
-0.19937173 0.13973865 0.86033934
-0.20912857 0.13529177 0.86189002
-0.20443927 0.14469595 0.86192983
-0.20204689 0.15406118 0.86174685
-0.22112946 0.13544737 0.86288124
-0.21866845 0.13537991 0.86245155
-0.2163132 0.1353772 0.86243427
-0.20681843 0.14001708 0.86205357
-0.20217592 0.14475761 0.86229718
-0.19990253 0.14481348 0.86262989
-0.20468991 0.14957808 0.86298651
-0.20221469 0.14948726 0.86246252
-0.22606531 0.13558632 0.86376649
-0.22368221 0.13556899 0.86365604
-0.21425682 0.13556352 0.86362123
-0.21189547 0.13555887 0.86359161
-0.19532022 0.13549148 0.86316228
-0.19785178 0.14032391 0.86394262
-0.20482323 0.14261381 0.86354864
-0.20245726 0.1426053 0.86349714
-0.20019783 0.14267252 0.86390418
-0.20706116 0.14488655 0.86306524
-0.20010793 0.15437751 0.86351627
-0.20235085 0.158998 0.86304331
-0.20015672 0.1591239 0.86372674
-0.20978303 0.13807188 0.86458725
-0.1979124 0.13801122 0.86420733
-0.20968084 0.14036021 0.86416608
-0.21220693 0.14518802 0.86486101
-0.20966861 0.14506289 0.86411566
-0.19799541 0.14513914 0.86456984
-0.20742621 0.14985545 0.86458683
-0.20029142 0.14980714 0.86430806
-0.20274112 0.15223348 0.86470783
-0.20498894 0.1545082 0.86424726
-0.2028065 0.1569982 0.86498666
-0.19354947 0.13590018 0.86576599
-0.21956091 0.13829294 0.86597151
-0.21717151 0.13827455 0.86585629
-0.21242391 0.13825682 0.86574531
-0.21705553 0.14055963 0.86539388
-0.21479167 0.14062187 0.86577708
-0.21225168 0.14050271 0.8650434
-0.20770751 0.14297891 0.86575937
-0.21720111 0.14537492 0.86597437
-0.21472716 0.14529815 0.86551708
-0.19596192 0.1453789 0.86599809
-0.20776133 0.14773704 0.86598372
-0.20519631 0.14758995 0.86512154
-0.20284978 0.14759843 0.86517125
-0.2123892 0.15003173 0.86560386
-0.20766146 0.15474422 0.86556745
-0.20046318 0.15700954 0.86504918
-0.20762958 0.15943852 0.86543453
-0.20527932 0.15944535 0.86547154
-0.20304044 0.16426091 0.86598444
-0.20063002 0.16422008 0.86576921
-0.22906543 0.13596956 0.86620796
-0.19141997 0.13606399 0.86680955
-0.2245374 0.13845049 0.86695802
-0.22195016 0.13831086 0.86608374
-0.21509217 0.13845533 0.8669883
-0.2268724 0.14079618 0.86685032
-0.224525 0.1408059 0.86691016
-0.2219623 0.14067937 0.86613113
-0.21960127 0.1406793 0.86613071
-0.19603479 0.14071007 0.86632013
-0.19834971 0.14303796 0.86611694
-0.20075257 0.14779066 0.86629802
-0.214996 0.15020451 0.86660069
-0.21019791 0.15015189 0.86629713
-0.19837427 0.15013924 0.86622417
-0.20551226 0.15254083 0.86645359
-0.20089139 0.1526189 0.86689705
-0.21029907 0.1549492 0.86671406
-0.19854666 0.1549962 0.86697692
-0.20083134 0.16202255 0.86663795
-0.22709268 0.1385677 0.86769199
-0.19628793 0.13852726 0.86743879
-0.21760237 0.14327861 0.86757416
-0.21287075 0.14327735 0.86756647
-0.21048512 0.14326321 0.86748081
-0.219826 0.14554997 0.86701709
-0.21279272 0.14795281 0.86724848
-0.21043523 0.14795737 0.86727518
-0.19864112 0.14797685 0.86738938
-0.22007363 0.15044597 0.86799377
-0.21752948 0.15032285 0.86728352
-0.22006704 0.15517335 0.86796778
-0.21529797 0.15514654 0.86781788
-0.21276842 0.15502703 0.86714941
-0.20585933 0.15753005 0.86791694
-0.19862682 0.15978716 0.86732692
-0.20329684 0.16210482 0.86707801
-0.20803332 0.16447581 0.8671174
-0.20581678 0.16459343 0.86773747
-0.2010618 0.16930355 0.86763245
-0.18937236 0.13629082 0.8682546
-0.22268055 0.14350317 0.86893386
-0.22031994 0.14350836 0.86896527
-0.21537964 0.14337324 0.86814708
-0.19656537 0.14345875 0.86866486
-0.22249341 0.14574915 0.86820358
-0.21792074 0.14822491 0.86884344
-0.21543247 0.14814243 0.86835998
-0.22495301 0.15054458 0.8685627
-0.22252803 0.15050574 0.86833864
-0.20835619 0.15289462 0.86846316
-0.19900148 0.15298261 0.86896294
-0.2250638 0.15535618 0.86899048
-0.22253631 0.15524542 0.86837095
-0.21791241 0.15532395 0.86881024
-0.20840828 0.15766861 0.8686803
-0.19893751 0.1576692 0.86868358
-0.21064098 0.15993385 0.86812317
-0.2131474 0.16003901 0.86869395
-0.20844625 0.16243397 0.86883855
-0.20606011 0.16241992 0.86876339
-0.19891441 0.16475375 0.86858273
-0.20115046 0.16701213 0.86801499
-0.19890682 0.167115 0.86854964
-0.20352496 0.16938522 0.86805099
-0.19886366 0.16944574 0.86836112
-0.19435401 0.14594409 0.8693648
-0.22531684 0.14604527 0.86996746
-0.19675235 0.14833541 0.86949116
-0.19664842 0.1506259 0.86903185
-0.21323496 0.15299807 0.8690508
-0.21567929 0.15305161 0.8693549
-0.21106219 0.15314037 0.8698591
-0.19664319 0.15535945 0.86900878
-0.21104501 0.15786971 0.86978829
-0.21577951 0.1602352 0.86975884
-0.19678909 0.1602158 0.86965352
-0.19922018 0.16263576 0.86991793
-0.21341717 0.16498339 0.86979342
-0.21100025 0.16494744 0.86960381
-0.20384891 0.16728489 0.86943263
-0.20632805 0.16974467 0.86989307
-0.23245557 0.13657412 0.87005937
-0.187483 0.13663873 0.87047094
-0.19458911 0.13900279 0.8704164
-0.23008615 0.14131877 0.87006778
-0.19466653 0.14143166 0.87076277
-0.22556883 0.14383456 0.87094045
-0.22061899 0.1484469 0.87014472
-0.22788337 0.15091731 0.87071311
-0.22061494 0.15318784 0.87012875
-0.21824774 0.1531911 0.87014723
-0.21355778 0.15797466 0.87036651
-0.21605322 0.15806462 0.87086213
-0.22313726 0.16041152 0.87071598
-0.22060034 0.16029273 0.87007117
-0.21823899 0.16030031 0.87011236
-0.20884573 0.16986382 0.87050366
-0.20407642 0.17933449 0.87040299
-0.23036204 0.13436471 0.87111109
-0.2281335 0.13445073 0.87166882
-0.2304552 0.13916998 0.87146336
-0.22818014 0.1463608 0.87184703
-0.22322935 0.14860567 0.87107533
-0.19478065 0.14863943 0.87127322
-0.19489743 0.15110493 0.87179559
-0.22575177 0.15345511 0.87164682
-0.22326919 0.15338185 0.87123078
-0.22101805 0.15822008 0.87171865
-0.19715896 0.15814193 0.87128806
-0.22562592 0.16049348 0.87116086
-0.21139392 0.16288036 0.87122631
-0.21393456 0.16300669 0.87190205
-0.21613072 0.16524537 0.87117451
-0.19727944 0.16536789 0.87182045
-0.2091936 0.16776995 0.87195367
-0.20673157 0.16770083 0.87159437
-0.20191264 0.17952015 0.87130404
-0.2043622 0.18196152 0.87162185
-0.2020679 0.1844119 0.87197399
-0.23312874 0.13459113 0.87257904
-0.22601157 0.13460205 0.87264991
-0.2044743 0.13451724 0.8721
-0.20207542 0.13450281 0.87200648
-0.19991879 0.1346512 0.87296849
-0.1927388 0.13462237 0.87278157
-0.19019343 0.13450477 0.87201911
-0.1879966 0.13463378 0.87285554
-0.19257402 0.13926134 0.87203544
-0.19032234 0.13935311 0.87261015
-0.19273488 0.14175668 0.87276387
-0.22828488 0.14405037 0.87224722
-0.19497754 0.14403497 0.87215394
-0.19264691 0.14644782 0.87236547
-0.22597942 0.14885311 0.87252575
-0.19740042 0.1535798 0.8723551
-0.22838324 0.15600559 0.87262303
-0.19513266 0.15604578 0.8728478
-0.22367428 0.15841843 0.8728115
-0.21873513 0.15828755 0.8720904
-0.19500245 0.16069697 0.87226534
-0.21653385 0.16317448 0.87279946
-0.21882965 0.16549058 0.87246728
-0.21406361 0.17023933 0.87242806
-0.21170282 0.17025326 0.87249941
-0.20463674 0.1726896 0.87279278
-0.202121 0.17257294 0.87220317
-0.20455502 0.17499879 0.87244427
-0.19976982 0.17497346 0.87231803
-0.20220184 0.1750204 0.87255198
-0.20685394 0.17968625 0.87211025
-0.19982448 0.17977823 0.87255669
-0.20208989 0.18205485 0.87206888
-0.20467189 0.18461677 0.87294275
-0.19537605 0.13480051 0.87393653
-0.2358757 0.13718392 0.87394416
-0.18572734 0.13709424 0.87337285
-0.23324724 0.14179869 0.87302256
-0.19059522 0.14193492 0.87386125
-0.15712096 0.14182103 0.87316
-0.15004179 0.15140308 0.87351584
-0.22610947 0.15845771 0.87302792
-0.21914281 0.1633458 0.87371582
-0.19761246 0.1632666 0.87329221
-0.22152156 0.16572526 0.87370455
-0.19538163 0.16577399 0.87396145
-0.21425934 0.16801472 0.87322575
-0.21188344 0.16801818 0.87324375
-0.199935 0.17273837 0.87303931
-0.20952596 0.17517824 0.87333894
-0.20715813 0.17518903 0.87339276
-0.20479612 0.17758599 0.87347257
-0.20249186 0.17765327 0.8738035
-0.20000856 0.17756321 0.87336046
-0.20967938 0.18007116 0.87397844
-0.20719613 0.18236467 0.87355298
-0.20728679 0.18482666 0.87393516
-0.2001452 0.18483132 0.87395716
-0.23602656 0.1348879 0.87450308
-0.22405127 0.1348539 0.8742826
-0.19787613 0.13488086 0.87445736
-0.18592367 0.13485596 0.87429601
-0.18827234 0.13959676 0.87413579
-0.18833248 0.14202486 0.87441504
-0.18603075 0.14208733 0.87479955
-0.19318782 0.14447442 0.87481487
-0.15735999 0.1444205 0.87448841
-0.23129484 0.1468294 0.87463844
-0.15257175 0.14678419 0.87436914
-0.2289222 0.14922103 0.87468237
-0.1931676 0.14922802 0.87472332
-0.23128134 0.15158881 0.87458742
-0.1930515 0.15152125 0.8741976
-0.19080929 0.15163307 0.87484276
-0.15259349 0.15157257 0.87449372
-0.22881496 0.15391737 0.87427258
-0.19317272 0.15638524 0.87474656
-0.15026517 0.15639772 0.87481636
-0.19553636 0.15875278 0.87465358
-0.2289882 0.16118871 0.87493449
-0.19309983 0.16109326 0.87441647
-0.22161104 0.16340967 0.87405747
-0.21702965 0.16831721 0.87479788
-0.19796637 0.16832842 0.87485617
-0.21944036 0.17072211 0.87490213
-0.21695976 0.1706468 0.87451619
-0.20732769 0.17294975 0.8741076
-0.19796629 0.17548251 0.87485582
-0.19797117 0.18025638 0.87487739
-0.20029302 0.18258379 0.87460262
-0.20267044 0.19211364 0.87457412
-0.222011 0.13506249 0.87563497
-0.18386307 0.13748038 0.87583274
-0.23389852 0.13980827 0.87546021
-0.18615448 0.13979569 0.87538147
-0.23154901 0.144604 0.87559956
-0.19100492 0.14701428 0.87573969
-0.1552244 0.14703925 0.87588847
-0.15041584 0.14700651 0.87569344
-0.19569884 0.15411241 0.8753804
-0.19105639 0.15660498 0.87597567
-0.22668934 0.16363576 0.87526685
-0.22444753 0.16374084 0.87582886
-0.19566913 0.16363214 0.87524748
-0.22424124 0.16597553 0.8750239
-0.22668812 0.16602071 0.87526214
-0.19804484 0.17078081 0.87520295
-0.20992662 0.1731281 0.875009
-0.21493194 0.17570539 0.87596697
-0.20756565 0.17791907 0.87511086
-0.21475655 0.1803336 0.87525213
-0.21232133 0.18029162 0.87504846
-0.19802105 0.18507256 0.87509787
-0.20283642 0.18749918 0.87529039
-0.20049256 0.1923113 0.87547392
-0.1839138 0.13513027 0.87607437
-0.18391089 0.14229213 0.87606049
-0.16248901 0.14235356 0.8764388
-0.1553102 0.14234282 0.87637264
-0.19115826 0.14474326 0.87644279
-0.16016385 0.14480034 0.87678838
-0.15773983 0.14715856 0.87659925
-0.191221 0.14957042 0.87673038
-0.15301935 0.14960521 0.87693429
-0.18875016 0.15189506 0.87635428
-0.14817831 0.15193379 0.87657773
-0.18649684 0.15200548 0.87699133
-0.15060264 0.15435898 0.87678099
-0.14817551 0.15670964 0.87656111
-0.22952129 0.15917347 0.87697136
-0.19366501 0.15917426 0.87697577
-0.19114983 0.16145945 0.87640411
-0.19356059 0.16625607 0.87650293
-0.21973597 0.16856402 0.87608069
-0.22469316 0.17108998 0.87678736
-0.22230576 0.17109196 0.8767975
-0.14818902 0.17106144 0.87664109
-0.22470455 0.17587885 0.87683177
-0.22232921 0.17589054 0.87689
-0.21975856 0.17574628 0.87617081
-0.21263555 0.17578089 0.87634343
-0.2101645 0.17809995 0.87600052
-0.19830379 0.17817046 0.8763473
-0.21736774 0.18052077 0.87616062
-0.2103471 0.18542442 0.87676162
-0.20553713 0.18778679 0.87663305
-0.20064066 0.18767703 0.87612063
-0.20306338 0.19009754 0.87626976
-0.19841115 0.1902173 0.87682176
-0.20544718 0.19248165 0.87624943
-0.23924567 0.13775264 0.87756723
-0.18424262 0.14015648 0.87764072
-0.16038328 0.14021221 0.87798965
-0.23695382 0.1425972 0.87793875
-0.18189341 0.14258257 0.87784868
-0.18904613 0.14495559 0.87772846
-0.15543981 0.14485246 0.87710398
-0.23453395 0.14736663 0.87783861
-0.18907532 0.14737087 0.87786394
-0.23199378 0.14966445 0.87728149
-0.15067935 0.14965525 0.8772276
-0.19387379 0.15455973 0.87792122
-0.19145921 0.15454236 0.87782258
-0.1889991 0.15687929 0.87751007
-0.15311185 0.15687113 0.87746435
-0.15079014 0.16172998 0.87787259
-0.14828017 0.16160245 0.87718034
-0.19135813 0.16641848 0.87735915
-0.14832436 0.16643414 0.8774417
-0.19615172 0.16881905 0.87740612
-0.19613045 0.17119215 0.87731099
-0.19386107 0.17129998 0.87786359
-0.14586504 0.17113841 0.8770355
-0.22011298 0.17363755 0.87758386
-0.21524242 0.173568 0.87723231
-0.21288526 0.17359576 0.87737262
-0.21767209 0.17599031 0.87738746
-0.22002162 0.18073897 0.87721962
-0.21290679 0.1831806 0.87746137
-0.21044789 0.18312222 0.87718177
-0.19853908 0.18316509 0.87738711
-0.20815666 0.18799448 0.87760258
-0.205654 0.19028448 0.87713146
-0.20092796 0.19033735 0.87737513
-0.21292555 0.19276485 0.87753868
-0.20812279 0.19274753 0.87745982
-0.20345797 0.19525336 0.87797248
-0.20342988 0.19761927 0.87785125
-0.20106369 0.19764552 0.87796783
-0.15812768 0.14033437 0.87875462
-0.23478517 0.14512907 0.87877887
-0.18683466 0.14509621 0.87857997
-0.15322933 0.14502317 0.87813765
-0.1484468 0.14742158 0.87816596
-0.23222212 0.15459912 0.87814498
-0.14858387 0.15474559 0.87897694
-0.23228633 0.1570362 0.87838775
-0.186864 0.15709522 0.8787179
-0.1916855 0.15951629 0.87886012
-0.15085582 0.15940645 0.87825501
-0.14852865 0.15947819 0.87865025
-0.18914373 0.16178691 0.87818158
-0.22996092 0.16426848 0.87865114
-0.19391869 0.16417003 0.87812454
-0.22981115 0.16655499 0.87807888
-0.22267723 0.16898385 0.87826264
-0.14854257 0.16907427 0.87873256
-0.19168815 0.17149681 0.87887228
-0.22508539 0.1737828 0.87831789
-0.22272281 0.17380743 0.87844241
-0.21801628 0.17387319 0.87877476
-0.198873 0.17389059 0.87886274
-0.14851995 0.17623326 0.87859869
-0.14612274 0.17623052 0.87858498
-0.22033866 0.1786048 0.87848365
-0.21560115 0.17864764 0.87869436
-0.222626 0.18091224 0.87806058
-0.22281906 0.18346465 0.87882203
-0.22032234 0.18338042 0.87841856
-0.21789323 0.18335125 0.87827879
-0.21549597 0.18334851 0.87826568
-0.19638954 0.18578571 0.87846994
-0.22045298 0.18828085 0.87893945
-0.2131999 0.18822299 0.87866932
-0.21069412 0.18812418 0.87820804
-0.19867846 0.18808027 0.87800306
-0.20842081 0.19062829 0.87871629
-0.21557525 0.19299553 0.8785888
-0.21070343 0.19292042 0.87824684
-0.19873744 0.19292411 0.87826371
-0.21799009 0.19301319 0.8786692
-0.20128031 0.19546269 0.87891376
-0.20591444 0.2024952 0.87824231
-0.20352262 0.20249732 0.87825149
-0.20586151 0.21201648 0.87801653
-0.20366085 0.21221724 0.87884796
-0.18228297 0.13569394 0.87972879
-0.18215945 0.13799837 0.87913269
-0.23744151 0.14049263 0.87974566
-0.16553554 0.14292124 0.87993377
-0.15344982 0.14283474 0.87940121
-0.18467486 0.14528114 0.87969971
-0.18692443 0.14756194 0.87900203
-0.18473442 0.14772667 0.87998337
-0.18938923 0.15001246 0.87932146
-0.15590106 0.15007819 0.87970674
-0.14865908 0.15002957 0.87942177
-0.23489614 0.15238729 0.8791942
-0.15578404 0.15236168 0.87904638
-0.18938284 0.15480101 0.87929177
-0.1870596 0.15486191 0.87963772
-0.15347335 0.15484403 0.87953609
-0.19178179 0.16439009 0.87930161
-0.14872338 0.16448367 0.87980217
-0.18937239 0.16677585 0.87924325
-0.2278814 0.16929302 0.87986946
-0.22529881 0.16915472 0.87915069
-0.19430026 0.16928974 0.87985241
-0.22773978 0.17158471 0.87932271
-0.22777347 0.17640458 0.87945276
-0.19429146 0.17647675 0.87981254
-0.15114935 0.17650709 0.87996382
-0.22301821 0.17883329 0.8796075
-0.21807621 0.1787131 0.87901634
-0.21328317 0.17871232 0.87901253
-0.22527047 0.18111405 0.87904006
-0.19651893 0.18111582 0.87904871
-0.1487551 0.18130973 0.87998986
-0.14630958 0.18125175 0.87970841
-0.19672945 0.18370856 0.8799904
-0.1463497 0.18609865 0.87994963
-0.21817158 0.18837968 0.87940073
-0.21590841 0.1884966 0.87994659
-0.21112362 0.19090641 0.87999827
-0.19657585 0.19075565 0.87930334
-0.2086802 0.19566198 0.87980986
-0.20618182 0.19556698 0.87938273
-0.198966 0.19793952 0.87927377
-0.21591265 0.19809487 0.87996393
-0.20627117 0.19804981 0.87976378
-0.20392075 0.2004948 0.87996954
-0.20146056 0.20283149 0.87970078
-0.20625919 0.20763014 0.8797127
-0.20380752 0.20757544 0.8794809
-0.20147896 0.21244258 0.87978113
-0.18236569 0.14055368 0.88012797
-0.18004021 0.14301124 0.88048798
-0.18725124 0.15022016 0.88053888
-0.18483265 0.15260519 0.88045132
-0.23289648 0.16224997 0.88069504
-0.18732406 0.16228428 0.88088131
-0.15356673 0.16213505 0.88007128
-0.15116218 0.1669267 0.8800385
-0.14639427 0.16696067 0.88021761
-0.19203465 0.16940682 0.88046092
-0.14636329 0.16932414 0.88003129
-0.22813383 0.17428263 0.88084412
-0.14885293 0.1742281 0.88056856
-0.14637116 0.17413117 0.88007861
-0.19682644 0.17659944 0.88042426
-0.22555186 0.17894116 0.8801381
-0.21842192 0.18619598 0.88040984
-0.21361707 0.18619148 0.88038862
-0.22315834 0.18854237 0.88016021
-0.21360847 0.1909834 0.88035321
-0.22078477 0.19336313 0.88026226
-0.21848415 0.19585118 0.88066065
-0.21598537 0.19576214 0.88026029
-0.21356365 0.19574173 0.8801685
-0.19918004 0.1957531 0.88021964
-0.21839227 0.19816834 0.88029027
-0.21361451 0.19818811 0.88037807
-0.20893054 0.1982978 0.88086534
-0.20635316 0.20052759 0.88011348
-0.20163779 0.20060989 0.88047469
-0.21612038 0.20308734 0.8808105
-0.20885676 0.20302828 0.88055426
-0.20656087 0.20553236 0.88099933
-0.2088066 0.20777887 0.88034284
-0.21133865 0.21271145 0.8808946
-0.20892699 0.21270077 0.88085037
-0.17781739 0.13354409 0.88136655
-0.17552546 0.13362823 0.88192189
-0.18027081 0.13838813 0.8816157
-0.16342498 0.14077076 0.88148725
-0.17781472 0.1431518 0.88135332
-0.17553887 0.1432551 0.8819893
-0.18258017 0.14552283 0.88116318
-0.15145999 0.14562343 0.88177234
-0.2379341 0.14799316 0.88157076
-0.18267614 0.14800248 0.88162625
-0.23538627 0.15030372 0.88102871
-0.18515256 0.15767756 0.88197523
-0.18981251 0.15995671 0.88128668
-0.15380295 0.15998182 0.88142496
-0.14659628 0.16238578 0.88143224
-0.18988983 0.16482832 0.88164568
-0.15139103 0.16477694 0.88137084
-0.23319995 0.1672689 0.88184261
-0.18742098 0.16717301 0.88133711
-0.23078454 0.1696641 0.88179809
-0.23062563 0.17194925 0.8811909
-0.1897551 0.17191593 0.88102013
-0.15135995 0.17194906 0.88118988
-0.19699004 0.17434435 0.88115603
-0.19457297 0.17433074 0.8810873
-0.19218728 0.17674716 0.88116068
-0.14660154 0.17921069 0.88146383
-0.19471593 0.18166924 0.88173467
-0.22584142 0.18397528 0.88126802
-0.14667037 0.18410255 0.88187766
-0.22105739 0.18639465 0.88134921
-0.21628046 0.1864187 0.88146293
-0.14907049 0.18650173 0.88185555
-0.19709437 0.18885565 0.88162267
-0.22113998 0.19127092 0.88167852
-0.21867487 0.19121687 0.88142937
-0.21629894 0.19124047 0.88153821
-0.14658679 0.1912051 0.88137513
-0.22347952 0.19361898 0.88142699
-0.19702721 0.19359598 0.88132226
-0.21142381 0.19598214 0.88124955
-0.21149957 0.19845538 0.88156533
-0.19711472 0.19848879 0.88171375
-0.21879521 0.20334189 0.88191444
-0.21382427 0.20318697 0.88124257
-0.21148717 0.20324947 0.88151366
-0.20914523 0.20571226 0.88177049
-0.20427667 0.2056504 0.88150537
-0.21151015 0.20807782 0.88160944
-0.20667374 0.21045023 0.88148081
-0.20438316 0.21056581 0.88196492
-0.21398793 0.21295835 0.88191706
-0.20670064 0.21768688 0.88159549
-0.20427711 0.21766509 0.88150728
-0.20910503 0.22249445 0.88160098
-0.1803856 0.1336669 0.88217711
-0.18051694 0.13617067 0.88281947
-0.17804651 0.13852729 0.8825022
-0.15644214 0.140974 0.88275987
-0.24049363 0.14328036 0.88214481
-0.18048714 0.14577229 0.88267374
-0.16354977 0.14568751 0.88216031
-0.18038459 0.14809412 0.88217217
-0.17806248 0.14816281 0.88258135
-0.17562053 0.14813229 0.88239956
-0.18530037 0.15058531 0.88267928
-0.23572426 0.15532953 0.88229376
-0.18536238 0.15544941 0.88297474
-0.23576701 0.15776312 0.8824538
-0.1467758 0.15777345 0.88251156
-0.23336443 0.16017051 0.88246459
-0.19008552 0.16980958 0.88255423
-0.15166907 0.16989334 0.88298953
-0.1444096 0.17225394 0.8827523
-0.19242384 0.17455986 0.8822453
-0.23095407 0.17700493 0.88244581
-0.19009587 0.17703633 0.88260233
-0.22851871 0.17938684 0.88233018
-0.1972646 0.17939782 0.88238418
-0.19491127 0.17944559 0.8826192
-0.14916201 0.17940041 0.882397
-0.14444533 0.18192391 0.88297075
-0.22369084 0.18658736 0.88226044
-0.14442374 0.18670966 0.88283873
-0.14673845 0.18899797 0.88228709
-0.22614649 0.18903467 0.88245845
-0.22377101 0.19146575 0.88257658
-0.19483458 0.19139965 0.88227195
-0.14683449 0.19393474 0.88286448
-0.19740079 0.19636996 0.8829934
-0.22134998 0.19866934 0.88251579
-0.2092611 0.20101644 0.88225901
-0.19971137 0.20108677 0.8825677
-0.19968845 0.20346916 0.88246644
-0.21409613 0.20825568 0.88236302
-0.20204437 0.20822902 0.88225007
-0.20937192 0.21074757 0.88272625
-0.21662749 0.21319021 0.88287729
-0.20695242 0.21554603 0.88266939
-0.21177521 0.21796311 0.88271421
-0.20939299 0.21798801 0.88281506
-0.20199648 0.21779688 0.88204098
-0.20681942 0.2226209 0.88210207
-0.20445974 0.22266969 0.88229537
-0.18304989 0.13385676 0.88343006
-0.17833869 0.1363451 0.88395041
-0.17583397 0.13867952 0.88347203
-0.24075007 0.14102599 0.88308549
-0.18059379 0.14104353 0.88319528
-0.17335516 0.1434375 0.88311237
-0.16864063 0.14352255 0.88363588
-0.23835833 0.14584972 0.88314259
-0.17823179 0.14589563 0.88342059
-0.14935008 0.14591032 0.88350952
-0.16134419 0.14827505 0.88324994
-0.15894738 0.1506929 0.8833099
-0.23852143 0.15317638 0.88374686
-0.18298146 0.15306425 0.88309985
-0.18789469 0.16037017 0.88356465
-0.14692865 0.16034585 0.88343066
-0.18544157 0.16273944 0.88335192
-0.2335248 0.16509479 0.88307101
-0.18793526 0.16522275 0.88375545
-0.14699915 0.16524127 0.88385451
-0.18791381 0.17243001 0.88365459
-0.23125792 0.17482924 0.88360679
-0.19031529 0.17483206 0.88362104
-0.15177608 0.17483038 0.88361251
-0.22889419 0.18209063 0.88377994
-0.1927685 0.18210003 0.88382554
-0.2289038 0.18450743 0.88381708
-0.14937367 0.18447235 0.88364905
-0.22642283 0.19408242 0.88353676
-0.22153738 0.19642991 0.88326293
-0.14933708 0.19646765 0.88343269
-0.22407231 0.19895056 0.88376498
-0.21924597 0.2013519 0.88373137
-0.21674246 0.20126407 0.88334584
-0.21445078 0.20137316 0.88382465
-0.2120319 0.20136394 0.88378417
-0.19749561 0.20128039 0.88341749
-0.22412497 0.20381644 0.88397264
-0.22148098 0.20360096 0.88303804
-0.19740845 0.20359854 0.88302761
-0.19517754 0.20378239 0.883825
-0.21189715 0.20605099 0.88322246
-0.20231946 0.20610438 0.88345128
-0.22167216 0.20859489 0.88380027
-0.21687502 0.20861515 0.8838861
-0.21207774 0.21104576 0.88397521
-0.22155021 0.21329568 0.88331407
-0.21922737 0.21337835 0.88365644
-0.20002384 0.21344891 0.88394862
-0.21202454 0.21581076 0.88375348
-0.20464648 0.21565148 0.88310122
-0.20225874 0.21567222 0.88318616
-0.21444137 0.21822774 0.8837859
-0.21425986 0.22285707 0.88303781
-0.21189293 0.22289924 0.88320494
-0.2192408 0.22302686 0.88371056
-0.21681131 0.22300562 0.88362646
-0.204794 0.22544266 0.8837378
-0.18561919 0.13397312 0.88419801
-0.17608924 0.13646916 0.88475466
-0.17835705 0.14117865 0.88404143
-0.17119025 0.14364082 0.88436407
-0.1519344 0.14366846 0.88453424
-0.175951 0.14600125 0.88406008
-0.17358437 0.14844796 0.88427997
-0.23882909 0.15096191 0.8848868
-0.18325154 0.15087943 0.88440329
-0.18094195 0.15337591 0.88489801
-0.15428776 0.16530649 0.88420337
-0.18562788 0.16772352 0.88423938
-0.14468792 0.17499681 0.88445371
-0.14462492 0.17733043 0.88406855
-0.15195829 0.17986321 0.8846733
-0.14462124 0.18455523 0.88404608
-0.22664973 0.18704455 0.88442218
-0.19538049 0.18711261 0.88474405
-0.19542146 0.189564 0.88492948
-0.22658131 0.19180819 0.88415515
-0.19531976 0.1942872 0.88446897
-0.2243717 0.19680417 0.88494581
-0.19530806 0.19909713 0.88441604
-0.22194949 0.20161954 0.88490599
-0.21708719 0.20640755 0.88475078
-0.21451437 0.20625262 0.88408673
-0.22429085 0.20879 0.88462692
-0.21952286 0.20884205 0.88484746
-0.20021191 0.20882607 0.88477969
-0.21469566 0.21125077 0.88483387
-0.20245406 0.211061 0.88403904
-0.214601 0.21597932 0.88444376
-0.21713562 0.21610251 0.88494819
-0.20980161 0.21600232 0.88453788
-0.22185519 0.21841148 0.88453001
-0.21946596 0.21843323 0.8846181
-0.21695052 0.21832845 0.88419378
-0.20008513 0.21833479 0.88421947
-0.21467689 0.22087911 0.88475651
-0.20978528 0.22080733 0.88446897
-0.20246832 0.22312547 0.88410133
-0.20021041 0.223295 0.88477308
-0.21705718 0.22566986 0.88462847
-0.21455546 0.22557487 0.88425606
-0.20988403 0.22573538 0.88488531
-0.20733888 0.22559059 0.8843177
-0.17384118 0.13418376 0.88558823
-0.17625919 0.14142892 0.88560849
-0.16664533 0.14146477 0.88583308
-0.17377278 0.14619607 0.88523978
-0.18105906 0.15106152 0.88547069
-0.17859644 0.1534331 0.88522798
-0.17628631 0.15352267 0.88574475
-0.14720547 0.15341006 0.88509506
-0.18348034 0.15589531 0.88550752
-0.1834116 0.15824975 0.88517576
-0.17871651 0.15836549 0.88582313
-0.17619984 0.1582738 0.88531029
-0.1859456 0.16076735 0.88575286
-0.23652458 0.16309637 0.88528931
-0.15451561 0.16796437 0.88550913
-0.23670559 0.16805118 0.88596684
-0.23423387 0.17042492 0.88575238
-0.18820117 0.17028131 0.88500589
-0.23411086 0.17274858 0.88528723
-0.23420224 0.17764419 0.88563275
-0.2316851 0.17997824 0.88523901
-0.19304439 0.17994803 0.88509047
-0.19076338 0.18248655 0.88570154
-0.15208577 0.18242761 0.88541549
-0.19544226 0.18475932 0.88502371
-0.19320264 0.18733934 0.8858161
-0.22943759 0.18976721 0.88587809
-0.14482817 0.18964574 0.88531101
-0.19309804 0.19206446 0.88533646
-0.14970902 0.19212879 0.88563293
-0.14489412 0.19214639 0.88571411
-0.22933201 0.19450718 0.88547045
-0.14975631 0.19460434 0.88591272
-0.19559047 0.19697075 0.88569486
-0.14728707 0.19694647 0.88558573
-0.22703281 0.19943501 0.88591701
-0.19313698 0.19934452 0.88551497
-0.22449671 0.20174094 0.88543886
-0.19563934 0.2018497 0.88591617
-0.19315986 0.20419626 0.88561994
-0.22212486 0.20660686 0.88560516
-0.2197383 0.20663269 0.88571584
-0.20031188 0.20651735 0.88522148
-0.19797122 0.20659283 0.88554496
-0.224415 0.21373095 0.88511658
-0.19805433 0.21392415 0.88591671
-0.22203404 0.21617451 0.88524306
-0.21974549 0.21629705 0.88574481
-0.21233161 0.22094822 0.88503337
-0.20757221 0.22101799 0.8853128
-0.2051924 0.22105399 0.88545704
-0.17167358 0.14646381 0.88686097
-0.16678482 0.14641652 0.88657463
-0.14748244 0.14886437 0.88676041
-0.17877482 0.15117095 0.88611215
-0.14744711 0.15607847 0.88654792
-0.18117934 0.15840764 0.88605893
-0.18365589 0.16329265 0.88635474
-0.17652801 0.163404 0.8869592
-0.18612139 0.16575274 0.88659024
-0.18376863 0.16822799 0.88689888
-0.14504717 0.17059758 0.88664973
-0.18610843 0.1729908 0.88652849
-0.18855685 0.175437 0.88667846
-0.19099307 0.18028907 0.88676792
-0.1449814 0.18018331 0.88624769
-0.23204929 0.18509477 0.88663054
-0.19340056 0.18511418 0.88672352
-0.14983146 0.18986984 0.88635719
-0.22972463 0.1924224 0.88698637
-0.19087163 0.1922527 0.88620412
-0.22725165 0.19721006 0.88677096
-0.15227418 0.19715254 0.88651234
-0.19343866 0.20207344 0.88689816
-0.22715618 0.20437576 0.88639843
-0.22479615 0.2068436 0.88661987
-0.19580568 0.20685515 0.8866694
-0.22724636 0.20929118 0.88675034
-0.19811283 0.20915617 0.88617837
-0.19570954 0.20916931 0.88623405
-0.22240901 0.21170537 0.88673806
-0.21760763 0.21173732 0.88687187
-0.2005388 0.21641414 0.88622433
-0.22469002 0.21882416 0.88620132
-0.19825129 0.21897143 0.88679773
-0.21999547 0.22137739 0.88675243
-0.21749741 0.22129506 0.88642263
-0.20307025 0.22137173 0.88672972
-0.22488776 0.22385228 0.88698119
-0.22225732 0.22363828 0.88613325
-0.17412068 0.1392352 0.88701206
-0.17429738 0.14179681 0.88791221
-0.17654474 0.1513298 0.88704324
-0.1475336 0.15133402 0.88706797
-0.23948644 0.1562148 0.88732231
-0.18146524 0.15623853 0.88745707
-0.17911863 0.15630177 0.88781625
-0.23948345 0.15863152 0.88731122
-0.23699127 0.16100025 0.88703609
-0.18155949 0.16358066 0.88791806
-0.17904243 0.16349231 0.88743854
-0.17423841 0.16352424 0.88761187
-0.1863921 0.17083426 0.88787979
-0.23482195 0.17569377 0.88797617
-0.18863522 0.17792785 0.88704693
-0.23465739 0.18040821 0.8873539
-0.23227891 0.18285872 0.88750792
-0.22982176 0.18766613 0.88736135
-0.19107385 0.18761997 0.88714302
-0.16943374 0.19259708 0.88779157
-0.19361044 0.19499382 0.88768578
-0.1669255 0.1973327 0.88732243
-0.22994864 0.19987045 0.8878513
-0.15238975 0.19972052 0.88718522
-0.22743796 0.2022101 0.88749796
-0.19363406 0.20953752 0.88779408
-0.22490484 0.21177951 0.88704854
-0.22017165 0.21187834 0.88746256
-0.20072493 0.2117791 0.88704687
-0.22499208 0.21669944 0.88739264
-0.19847217 0.21679543 0.88778573
-0.20089777 0.22164157 0.88781065
-0.19848716 0.22407225 0.88785279
-0.17436591 0.13701004 0.88826132
-0.16229597 0.13946255 0.88846034
-0.16953006 0.14670084 0.88829625
-0.17207371 0.14922825 0.888928
-0.17676921 0.15636423 0.88817108
-0.17439513 0.15882799 0.88841021
-0.18401025 0.16118699 0.88806492
-0.18166713 0.16125588 0.88844448
-0.1792963 0.1613017 0.88869691
-0.17680331 0.16123734 0.88834238
-0.23737501 0.16610461 0.88847238
-0.18412109 0.16612844 0.88859987
-0.17438009 0.16850011 0.88833356
-0.14534572 0.16852689 0.8884747
-0.23747934 0.17344631 0.88886291
-0.17198466 0.1782129 0.88846803
-0.18887536 0.18299642 0.8881762
-0.18904543 0.18800761 0.88897598
-0.23244087 0.19024889 0.88812673
-0.19367965 0.19022241 0.88800305
-0.23259489 0.19521995 0.88871521
-0.23015612 0.19762847 0.88865238
-0.19371641 0.19752155 0.88817161
-0.16480087 0.19768545 0.88890857
-0.23007885 0.20482665 0.888354
-0.19138657 0.20488219 0.88859493
-0.22765064 0.20724207 0.8883279
-0.19384475 0.20734289 0.88876009
-0.19868334 0.21218103 0.88873035
-0.22764742 0.21450335 0.88831532
-0.19612522 0.21445531 0.88811636
-0.22763219 0.21933149 0.88825589
-0.19620782 0.21938939 0.88849044
-0.22284025 0.22180304 0.88845742
-0.22780852 0.22434764 0.88894397
-0.17468618 0.15424165 0.88989288
-0.17469828 0.1663817 0.88995451
-0.17711091 0.16879496 0.88988799
-0.18672958 0.17599277 0.88948739
-0.23777652 0.17851521 0.88997519
-0.18672279 0.17841087 0.88945496
-0.17225081 0.18333982 0.88984293
-0.19149372 0.18560871 0.88909245
-0.16984609 0.18821406 0.88995218
-0.19155972 0.1905214 0.88939887
-0.16725276 0.1928727 0.88906205
-0.19158974 0.20025021 0.88953823
-0.15524405 0.20028298 0.88968372
-0.15032685 0.20019384 0.88928777
-0.23042993 0.202714 0.88970959
-0.1916157 0.20997763 0.88965881
-0.22789152 0.21230935 0.8892678
-0.22541563 0.22195427 0.88906318
-0.1989174 0.22213255 0.8897773
-0.19651674 0.22458622 0.8898893
-0.17001875 0.14226706 0.89085686
-0.17489341 0.15199605 0.89094853
-0.17485727 0.16167697 0.89076447
-0.17972024 0.16653943 0.89079815
-0.17722529 0.1664767 0.89046264
-0.18216509 0.16898307 0.89087975
-0.1724413 0.16897307 0.890827
-0.23791392 0.17133638 0.89048952
-0.18460122 0.17141865 0.89091706
-0.18441939 0.17367592 0.89003956
-0.17485315 0.17381327 0.89074343
-0.17233628 0.17372371 0.89028448
-0.17247108 0.17628826 0.89098084
-0.18937607 0.1810541 0.89053077
-0.18690203 0.18343581 0.8903088
-0.23540151 0.18583322 0.89016777
-0.18928461 0.18581919 0.89010066
-0.23296197 0.18824908 0.89011776
-0.17243831 0.18839581 0.89081156
-0.1892792 0.19309251 0.89007527
-0.19174759 0.19556174 0.89027113
-0.16753682 0.19562782 0.89057201
-0.14569701 0.19563882 0.89062208
-0.16991267 0.19799511 0.89030099
-0.16260853 0.19796629 0.89017141
-0.16264071 0.20043239 0.89034748
-0.15778095 0.20042492 0.89031434
-0.15779594 0.20287107 0.89039898
-0.15535879 0.20285793 0.89034128
-0.19187535 0.2078338 0.89086431
-0.19662368 0.21257335 0.89037359
-0.19423984 0.21504815 0.89057148
-0.22817503 0.21742751 0.89037412
-0.19665961 0.2174671 0.89053625
-0.19412702 0.21977556 0.89005429
-0.19190213 0.22000627 0.89098865
-0.22830941 0.22241245 0.89089847
-0.19416448 0.22467119 0.89022601
-0.19173193 0.22466423 0.89019841
-0.17744632 0.13266031 0.89157319
-0.17492704 0.13259286 0.89111984
-0.17248984 0.14230232 0.8910777
-0.18226703 0.16664787 0.89137822
-0.17980379 0.16904615 0.89121228
-0.18480277 0.17889926 0.89188981
-0.23829061 0.18133236 0.89189941
-0.18721229 0.18130946 0.89178675
-0.1724852 0.18116044 0.8910538
-0.17015308 0.18369375 0.89156073
-0.14344802 0.18372925 0.89173299
-0.14344728 0.186159 0.89172834
-0.18715715 0.18854651 0.89152408
-0.14333118 0.18843707 0.89100665
-0.17017348 0.19100741 0.8916676
-0.23325942 0.19334829 0.89125431
-0.17005089 0.19572738 0.89102525
-0.23324573 0.20062475 0.89120197
-0.18964468 0.20075801 0.89179391
-0.16522476 0.20062317 0.89119494
-0.16040781 0.20067516 0.89142591
-0.19196354 0.20307037 0.89127374
-0.18968613 0.20566474 0.89198887
-0.23085998 0.20795178 0.89137006
-0.23082909 0.21035337 0.89125079
-0.19448625 0.21289031 0.89170122
-0.19682758 0.2225119 0.89129686
-0.19444941 0.2225707 0.89153236
-0.19207381 0.22263396 0.89178574
-0.17283617 0.13528661 0.89286691
-0.17522021 0.1571463 0.89261335
-0.17281672 0.15960678 0.89276642
-0.17285311 0.16450849 0.89295441
-0.1752288 0.17175345 0.8926571
-0.17026688 0.17895286 0.89215702
-0.17523372 0.17905819 0.89268219
-0.23595032 0.18383434 0.89224309
-0.18500102 0.18395868 0.89284652
-0.18737395 0.18633196 0.89255685
-0.17276454 0.18631943 0.89249682
-0.18977319 0.1911639 0.89239818
-0.18740664 0.19366463 0.89271253
-0.1727735 0.19362786 0.89254308
-0.233649 0.19853815 0.89274281
-0.16055833 0.20329562 0.89226234
-0.23352094 0.20572576 0.89225352
-0.18983465 0.21069241 0.89268726
-0.19215897 0.2130049 0.89218116
-0.19213209 0.21540669 0.89205629
-0.23115347 0.22038026 0.89250326
-0.17299345 0.14028178 0.89367938
-0.17288427 0.17184162 0.89311534
-0.1777478 0.17427076 0.89308798
-0.23860507 0.17670289 0.89307642
-0.18505989 0.17671363 0.89313066
-0.17532434 0.17671622 0.89314377
-0.17059997 0.18661283 0.8939023
-0.15347233 0.18896182 0.89348787
-0.18519089 0.18901999 0.89376289
-0.23628871 0.1914048 0.89352274
-0.1656764 0.1938639 0.89363104
-0.23631275 0.19629595 0.89361358
-0.19007862 0.19634448 0.89383447
-0.16574322 0.19637895 0.89399141
-0.15352257 0.19633257 0.89378029
-0.19233666 0.19859672 0.89300615
-0.18995157 0.19864807 0.89323705
-0.16806103 0.20111023 0.89335853
-0.18997078 0.20353828 0.89332736
-0.16318835 0.20354241 0.89334548
-0.15352508 0.20364481 0.89379495
-0.2314849 0.21338731 0.89378291
-0.2314802 0.21581922 0.89376473
-0.19478546 0.2180866 0.89307314
-0.19009867 0.22073226 0.89392877
-0.23130278 0.222957 0.89307976
-0.16576967 0.14035314 0.89413404
-0.17309627 0.16717739 0.89421058
-0.18295301 0.17215288 0.89473307
-0.17801 0.17208983 0.89440542
-0.18280853 0.1744539 0.89402652
-0.17076957 0.17460307 0.89479101
-0.18295601 0.17947252 0.89474773
-0.1852939 0.1818123 0.89426005
-0.17066984 0.181814 0.89426839
-0.16833952 0.18924755 0.89483887
-0.17309478 0.19155049 0.89420289
-0.16829476 0.19163576 0.89460093
-0.1877249 0.19886857 0.89422858
-0.16098806 0.19896241 0.89465052
-0.15854912 0.19896206 0.89464897
-0.18785021 0.20144045 0.89482546
-0.23403348 0.20373981 0.89421189
-0.18783714 0.20630442 0.89476323
-0.23409186 0.21110488 0.89443493
-0.19027127 0.21361592 0.89474046
-0.19028305 0.21606819 0.89479578
-0.19266388 0.21844125 0.89452541
-0.19015202 0.22323158 0.89417964
-0.1734381 0.13820006 0.89597642
-0.1709778 0.15039566 0.89588207
-0.1733547 0.15522142 0.8955456
-0.17338394 0.16257218 0.89569664
-0.18070003 0.17477161 0.89565462
-0.17082126 0.17709573 0.89506185
-0.18556346 0.1869591 0.89556098
-0.23681687 0.18939158 0.89551991
-0.18789732 0.19173194 0.89504993
-0.18563305 0.19435544 0.89589685
-0.15625213 0.19914263 0.8954609
-0.23425667 0.20881371 0.89506465
-0.19041811 0.20889917 0.89543092
-0.23196813 0.21871555 0.89564872
-0.23445478 0.22119965 0.89582163
-0.18077654 0.17240316 0.89603382
-0.17845556 0.17740878 0.89664412
-0.17604955 0.18233646 0.89683819
-0.18321863 0.184615 0.89603204
-0.17592087 0.18464606 0.89618272
-0.2371718 0.19456483 0.89686209
-0.18815833 0.19688457 0.89629322
-0.16380246 0.19697553 0.8967073
-0.23708278 0.20182316 0.89652544
-0.16625828 0.20432256 0.89676958
-0.23470089 0.21654297 0.89676195
-0.1905829 0.2188516 0.89620584
-0.18814673 0.22130245 0.89623797
-0.17370896 0.15798472 0.8973757
-0.17125265 0.17020509 0.89732224
-0.1713776 0.17277701 0.89797693
-0.18342285 0.1774853 0.89703083
-0.17855459 0.17995271 0.8971417
-0.1835089 0.18246119 0.89745164
-0.16891237 0.18499656 0.89788395
-0.18598278 0.19227491 0.89758468
-0.15421861 0.19477537 0.89783257
-0.17378245 0.19720577 0.89775538
-0.2373926 0.19963993 0.89769709
-0.18587689 0.19950129 0.89707369
-0.18831047 0.20437916 0.89701796
-0.23728564 0.20688762 0.89729261
-0.23488465 0.21426618 0.8974641
-0.18846111 0.21922514 0.89773548
-0.17385295 0.15321942 0.89811957
-0.17642735 0.18762752 0.89876282
-0.18365255 0.18994868 0.89815414
-0.17636847 0.19001397 0.89846283
-0.18869905 0.21215142 0.89886898
-0.18153316 0.17803004 0.89978403
-0.181476 0.1804259 0.89950073
-0.16926773 0.18048048 0.89977288
-0.16675894 0.19267879 0.89947003
-0.16436827 0.19520321 0.89980477
-0.18639739 0.19760782 0.89958566
-0.18640903 0.20252472 0.89964187
-0.18876885 0.2097788 0.89920139
-0.18892203 0.21730824 0.89993113
-0.23540547 0.21964483 0.89945412
-0.17177585 0.16581823 0.90006363
-0.17187448 0.16836828 0.90058047
-0.18413664 0.1879947 0.90052164
-0.16935812 0.18793871 0.90025342
-0.18420988 0.19543643 0.9008798
-0.18651916 0.20755182 0.90017337
-0.17199121 0.16111311 0.90119213
-0.16953924 0.18322656 0.90121621
-0.16721857 0.19075128 0.90194917
-0.17959198 0.18345788 0.902354
-0.18212174 0.18598913 0.90270138
-0.17957157 0.18589643 0.90225142
-0.18454826 0.19333526 0.9025346
-0.16238685 0.19823128 0.90242392
-0.18462624 0.20080058 0.90291601
-0.18707176 0.20570573 0.90284026
-0.18708688 0.21310595 0.90291327
-0.18947144 0.21547998 0.90254819
-0.18705073 0.22290766 0.90273881
-0.17002198 0.17635758 0.90378231
-0.16996463 0.17876083 0.90347743
-0.17727743 0.19345495 0.90309334
-0.17743993 0.19609621 0.90392113
-0.1873036 0.21088877 0.90395921
-0.1824467 0.183856 0.90431213
-0.23906143 0.21829262 0.90400773
-0.18744121 0.21844128 0.90462333
-0.1827352 0.19155344 0.90574211
-0.18514825 0.19890016 0.90546894
-0.18765317 0.22115695 0.90564632
-0.18049461 0.18932401 0.9068892
-0.18535492 0.20406401 0.9064796
-0.18790197 0.21650633 0.90684706
-0.18307334 0.18943441 0.90741807
-0.18061952 0.19192879 0.9075169
-0.18560921 0.20929259 0.90772325
-0.18551469 0.2141321 0.90726095
-0.18334925 0.19715154 0.9087857
-0.18584456 0.2120354 0.90887415
-0.18623216 0.20751242 0.91076982
-0.18607935 0.21974503 0.9100225
-0.18390748 0.20272127 0.91155255
-0.18644273 0.21768872 0.91179961
-0.18471509 0.21608979 0.91555554
-0.18513054 0.21407454 0.91761476
-0.18519048 0.21914801 0.91791189
-0.1842431 0.2184896 0.92572337
