# .PCD v0.7 - Point Cloud Data file format
VERSION 0.7
FIELDS x y z
SIZE 4 4 4
TYPE F F F
COUNT 1 1 1
WIDTH 1056
HEIGHT 1
VIEWPOINT 0 0 0 1 0 0 0
POINTS 1056
DATA ascii
-0.16560037 0.15294205 0.85548693
-0.16331251 0.15298332 0.85571784
-0.16331603 0.1669822 0.8557362
-0.16119467 0.15318736 0.85685915
-0.16582185 0.15781668 0.8566311
-0.16347697 0.15780717 0.85657954
-0.16349579 0.16249569 0.85667819
-0.16825229 0.14856075 0.85711706
-0.16598651 0.14862396 0.85748172
-0.16607247 0.1510395 0.85792583
-0.16607302 0.15571715 0.85792863
-0.16364647 0.15563348 0.85746771
-0.16358341 0.16491918 0.85713726
-0.16136864 0.16738178 0.85778391
-0.1636973 0.17204814 0.85773402
-0.16368601 0.17671204 0.85767484
-0.16137776 0.17674449 0.85783237
-0.20370752 0.13481374 0.8588447
-0.20136559 0.13481317 0.85884106
-0.16383852 0.151136 0.85847396
-0.16388267 0.16053951 0.85870534
-0.16381554 0.16983268 0.85835356
-0.16147496 0.1721715 0.85834908
-0.16157214 0.18163966 0.85886568
-0.19907978 0.13485061 0.85907954
-0.16872109 0.14663182 0.8595053
-0.16404171 0.14898047 0.85953861
-0.16177349 0.15139338 0.85993594
-0.15933438 0.15364577 0.85942322
-0.16162202 0.15593533 0.85913074
-0.16162851 0.15828355 0.85916531
-0.1664739 0.16078146 0.85999954
-0.16632606 0.16298082 0.85923582
-0.16164136 0.16298041 0.85923362
-0.16176243 0.16544636 0.85987717
-0.16172433 0.17009406 0.85967463
-0.16400503 0.17471401 0.85934645
-0.16174687 0.17480509 0.85979444
-0.1593762 0.17711873 0.85964876
-0.16171519 0.17945726 0.85962605
-0.15937997 0.18180957 0.85966915
-0.21581034 0.1350625 0.86042941
-0.2134492 0.13505252 0.86036587
-0.21119693 0.13511199 0.86074471
-0.17126839 0.14446136 0.8605324
-0.16882081 0.14437422 0.86001331
-0.15961757 0.16799973 0.86095071
-0.1642101 0.1796232 0.86042094
-0.15961196 0.17972746 0.86092037
-0.16425797 0.18202163 0.86067182
-0.16179137 0.18657471 0.86003101
-0.16192865 0.19142562 0.86076075
-0.21854332 0.13530245 0.86195809
-0.20906939 0.13525349 0.86164612
-0.20661324 0.13518319 0.86119831
-0.1715591 0.14705622 0.86199301
-0.16682105 0.14702208 0.86179292
-0.1690398 0.1516034 0.86112887
-0.16909038 0.15399675 0.86138648
-0.16210614 0.16110016 0.86170423
-0.15975088 0.16344248 0.86166972
-0.16675287 0.16809535 0.86144078
-0.15971847 0.17280251 0.8614949
-0.15744694 0.18228456 0.86191511
-0.16202323 0.18449444 0.86126351
-0.19749697 0.13537078 0.86239332
-0.20451674 0.13769966 0.86225647
-0.20229477 0.13778712 0.86280411
-0.19998522 0.1378163 0.86298674
-0.20700832 0.14014563 0.862845
-0.20451589 0.14004946 0.86225289
-0.20228237 0.14013039 0.86275119
-0.16221786 0.14945875 0.86229807
-0.15988277 0.15182386 0.86238116
-0.15983312 0.15647668 0.8621133
-0.15994555 0.15893839 0.86271977
-0.16688845 0.16588195 0.86214107
-0.15987535 0.16592044 0.86234111
-0.15988585 0.17533436 0.86239773
-0.15983686 0.18703084 0.8621335
-0.16227584 0.18948473 0.86260629
-0.15994483 0.19186042 0.8627159
-0.16226417 0.19652456 0.86254424
-0.22371979 0.13559176 0.86380118
-0.22117016 0.13547228 0.86304003
-0.19545883 0.13558763 0.86377484
-0.21667416 0.13795789 0.86387342
-0.21428619 0.13793652 0.86373961
-0.21184628 0.13788088 0.86339116
-0.20947517 0.13786927 0.8633185
-0.20722318 0.13793667 0.86374056
-0.21893358 0.14025158 0.86349732
-0.21651846 0.14021184 0.86325264
-0.21415901 0.14020768 0.86322701
-0.21175358 0.14017297 0.86301339
-0.20943551 0.14019598 0.86315501
-0.20008045 0.14023539 0.86339766
-0.20247819 0.14497404 0.86358637
-0.20013653 0.14498298 0.86363965
-0.1671505 0.14495867 0.86349487
-0.20492159 0.14503732 0.86396331
-0.16481923 0.14733253 0.86361265
-0.17187071 0.14967726 0.86355877
-0.16005896 0.17081758 0.86333144
-0.16719343 0.17324816 0.8637166
-0.1577073 0.17787936 0.8633405
-0.15779318 0.18033083 0.8638106
-0.16477299 0.18494575 0.86337036
-0.16001295 0.18488424 0.86308324
-0.16470307 0.18721968 0.86300403
-0.15780269 0.19211546 0.86386263
-0.16237627 0.19430757 0.86314017
-0.22620191 0.13566825 0.86428845
-0.19809224 0.14049445 0.86499262
-0.19336873 0.14048876 0.86495757
-0.21920355 0.14278117 0.86456203
-0.21925661 0.14517297 0.86477137
-0.21673138 0.14506052 0.86410153
-0.21456994 0.14519177 0.86488336
-0.17446935 0.14517303 0.86477172
-0.20272961 0.14986792 0.86465877
-0.20515911 0.15463646 0.86496472
-0.1603557 0.16170362 0.86493206
-0.15787856 0.168649 0.86427802
-0.16728778 0.17099024 0.86420405
-0.15784281 0.18745361 0.86408234
-0.16031407 0.18994628 0.86470747
-0.19346657 0.135842 0.86539525
-0.1911346 0.13586114 0.86551726
-0.21936448 0.13816923 0.86519682
-0.19826588 0.13825771 0.86575091
-0.22182944 0.14059517 0.86561269
-0.19590019 0.14061345 0.86572528
-0.21707551 0.14293171 0.86547357
-0.20530723 0.1429508 0.8655892
-0.20287287 0.14289805 0.86526978
-0.20068178 0.14301743 0.86599255
-0.21242686 0.14533849 0.86575735
-0.20760867 0.14526966 0.86534739
-0.19812858 0.14523676 0.86515135
-0.20290346 0.1476375 0.86540025
-0.20526154 0.14999582 0.86539662
-0.16044398 0.14999782 0.86540818
-0.20056576 0.15001231 0.86549187
-0.20295325 0.15475228 0.86561257
-0.20295264 0.15947084 0.86560994
-0.15817256 0.17132331 0.86588746
-0.1580501 0.17354913 0.86521709
-0.16762774 0.17841913 0.86596024
-0.16515759 0.19245414 0.86538559
-0.16516836 0.1971848 0.86544204
-0.2292695 0.1360907 0.86697966
-0.18901443 0.13603322 0.86661351
-0.22217779 0.13845271 0.86697197
-0.19615613 0.13843425 0.86685634
-0.21492501 0.14307059 0.86631453
-0.21023886 0.14309558 0.86646587
-0.20781949 0.14305599 0.86622614
-0.19854294 0.14317732 0.8669607
-0.22209512 0.14548825 0.86664939
-0.2102748 0.1454823 0.86661398
-0.19613227 0.14550528 0.8667509
-0.16536459 0.14545816 0.86647022
-0.20559776 0.14787869 0.86681408
-0.20073026 0.14777423 0.86620176
-0.16305208 0.14786479 0.86673254
-0.20781508 0.1501364 0.86620772
-0.21026143 0.15492147 0.86655891
-0.20783648 0.15487464 0.86629695
-0.17003715 0.15722017 0.86620963
-0.2055455 0.1596521 0.86659378
-0.17008917 0.15963013 0.86647457
-0.2032171 0.16440384 0.86673796
-0.16773957 0.17617612 0.86653799
-0.15836091 0.1762535 0.86691856
-0.15821634 0.18553628 0.86612713
-0.16532841 0.19029187 0.86628067
-0.15819325 0.19023035 0.86600071
-0.16061155 0.19502161 0.86631209
-0.16073805 0.1975385 0.86699438
-0.16541508 0.19984192 0.86673474
-0.16298841 0.19976337 0.86639404
-0.19394186 0.13854043 0.86752123
-0.19155897 0.14089179 0.86743897
-0.22232173 0.14327194 0.86753368
-0.21273918 0.14318879 0.86703026
-0.19393645 0.14563054 0.86749703
-0.21764079 0.1480345 0.86772734
-0.21522999 0.14800321 0.86754388
-0.20820549 0.14805287 0.86783504
-0.21762061 0.15038584 0.86764687
-0.21533678 0.1504426 0.86797434
-0.21293966 0.15042058 0.86784732
-0.21041866 0.15030958 0.86720687
-0.19858131 0.15029594 0.86712825
-0.20583628 0.15278134 0.86781973
-0.20336308 0.1527005 0.86736053
-0.20110101 0.15514363 0.86780161
-0.20347126 0.15751281 0.86782193
-0.20107633 0.15985499 0.86769509
-0.20581311 0.16459049 0.86772203
-0.20102388 0.16454245 0.86746877
-0.15846027 0.16454127 0.86746252
-0.15840954 0.16685238 0.8671847
-0.15612184 0.18348847 0.86760765
-0.16553286 0.1952557 0.86735189
-0.15850559 0.19533645 0.86771059
-0.1870939 0.13635515 0.86866438
-0.22498763 0.1387281 0.86869639
-0.22499692 0.14110185 0.86873227
-0.19654521 0.14344405 0.86857581
-0.19410343 0.14338924 0.86824399
-0.22027622 0.14821628 0.86879283
-0.2130935 0.14816193 0.8684743
-0.21080776 0.14821929 0.86881047
-0.19880162 0.14809641 0.86809027
-0.22027081 0.15058076 0.86877149
-0.19660546 0.15059298 0.86884201
-0.2155243 0.15530965 0.86873019
-0.21308708 0.15525922 0.86844814
-0.19890261 0.15527408 0.86853123
-0.20596838 0.1576135 0.86837667
-0.20847845 0.16009037 0.86897278
-0.20357694 0.16232817 0.86827266
-0.20128858 0.16239142 0.86861104
-0.16814633 0.20028105 0.86863929
-0.22748508 0.13880713 0.86919129
-0.19196609 0.13882169 0.86928248
-0.17313625 0.1436656 0.86991739
-0.17068203 0.1435958 0.86949474
-0.22516571 0.14594731 0.86938399
-0.19205081 0.14599468 0.86966616
-0.16364612 0.1460323 0.86989027
-0.17551169 0.14841166 0.86993814
-0.21088348 0.15301071 0.86912262
-0.20858838 0.153065 0.86943096
-0.2014295 0.1530277 0.86921912
-0.19916821 0.15311077 0.86969095
-0.22040805 0.15541379 0.86931276
-0.21802942 0.15540737 0.86927682
-0.19686054 0.15553117 0.86996925
-0.15889408 0.15550756 0.86983728
-0.21576415 0.15785313 0.86969692
-0.21091446 0.15777206 0.8692503
-0.20149745 0.15781963 0.86951238
-0.2181855 0.16026102 0.86989903
-0.21562701 0.16012196 0.8691442
-0.21334572 0.16018791 0.86950225
-0.21091336 0.16014066 0.86924571
-0.19909737 0.16016571 0.86938167
-0.15892191 0.16027771 0.86998963
-0.20627685 0.16259074 0.86967719
-0.20858017 0.16490816 0.86939675
-0.20394273 0.1673619 0.86983281
-0.20383942 0.16964693 0.86939216
-0.20147309 0.16964987 0.86940724
-0.20155461 0.17446017 0.86975902
-0.16839471 0.18160675 0.86992246
-0.1564907 0.18866308 0.86965752
-0.15642789 0.19332656 0.86930847
-0.15889129 0.19818276 0.86982203
-0.2326415 0.13668336 0.87075531
-0.22787058 0.14141566 0.87066424
-0.1898395 0.14137214 0.87039638
-0.19231573 0.14382224 0.87086582
-0.19695911 0.14849128 0.87040484
-0.22317599 0.15094398 0.87086707
-0.1946075 0.15088013 0.87049866
-0.19228755 0.15092164 0.87073821
-0.2184294 0.1533186 0.87087148
-0.21602741 0.15329863 0.87075806
-0.21368708 0.15332247 0.87089342
-0.22309043 0.15563199 0.87053323
-0.21356298 0.1579785 0.87038767
-0.2087651 0.15793855 0.87016761
-0.19945377 0.15807837 0.87093794
-0.22064029 0.16032176 0.87022871
-0.19704612 0.16042505 0.87078941
-0.21360627 0.16512959 0.8705641
-0.21123265 0.16512911 0.8705616
-0.19929172 0.16506627 0.87023032
-0.20165013 0.167427 0.87017119
-0.19945332 0.16757415 0.87093598
-0.20656295 0.16993792 0.87088341
-0.19935666 0.16986582 0.87051392
-0.20415121 0.17465332 0.870722
-0.20404607 0.17930782 0.87027353
-0.20182291 0.17944035 0.87091678
-0.15665622 0.17937042 0.87057734
-0.15659586 0.18167344 0.87024188
-0.16860051 0.18420288 0.87098563
-0.15669179 0.19127911 0.87077504
-0.23053688 0.13446668 0.87177223
-0.22807811 0.13441809 0.87145716
-0.18761478 0.13436034 0.87108278
-0.18535137 0.13681673 0.87160486
-0.23035792 0.13911122 0.87109548
-0.19009908 0.13918965 0.8715865
-0.17590949 0.14399466 0.87190986
-0.22801143 0.14625257 0.87120241
-0.17817444 0.1462796 0.8713634
-0.22324313 0.14861484 0.8711291
-0.16150902 0.14861889 0.87115288
-0.22086506 0.15336151 0.87111521
-0.19725645 0.15346779 0.87171888
-0.173363 0.1533512 0.87105668
-0.19488421 0.1558471 0.87173647
-0.21858877 0.15818164 0.87150687
-0.15915419 0.16288689 0.87126118
-0.19968341 0.16301392 0.87194067
-0.20672645 0.16769667 0.87157273
-0.21386133 0.17007846 0.87160361
-0.20917851 0.17013448 0.87189072
-0.20678431 0.17962576 0.87181669
-0.20431185 0.184292 0.87140709
-0.20201166 0.18436056 0.87173128
-0.1567886 0.18664718 0.87131304
-0.16878337 0.18915613 0.87193024
-0.16871993 0.19858842 0.87160248
-0.19022328 0.13452587 0.87215596
-0.18551196 0.13455735 0.87236005
-0.23064859 0.14166422 0.87219465
-0.22586085 0.14402077 0.87206799
-0.16895013 0.14414029 0.87279171
-0.19022194 0.14641161 0.87214977
-0.22593062 0.14882097 0.87233734
-0.19500451 0.14881027 0.87227458
-0.19276792 0.14891925 0.87291348
-0.22825189 0.15116134 0.87212116
-0.2258482 0.15114367 0.87201911
-0.22370663 0.15368237 0.87293774
-0.22587945 0.15591919 0.87213975
-0.22126082 0.15839387 0.87267613
-0.19734538 0.15829144 0.87211186
-0.22351331 0.16068186 0.87218338
-0.21174817 0.16315331 0.87268627
-0.20923136 0.16304576 0.87211102
-0.21651216 0.165537 0.87271202
-0.21418668 0.16795774 0.87292963
-0.21175069 0.16791292 0.87269664
-0.20927826 0.16783786 0.87230653
-0.21646012 0.17025381 0.87250227
-0.21162456 0.17019032 0.87217683
-0.20458941 0.17264967 0.87259096
-0.20209268 0.17254876 0.87208092
-0.19977322 0.17497644 0.87233287
-0.20698763 0.17504485 0.87267393
-0.20222305 0.17741744 0.87264353
-0.19979045 0.17974761 0.87240809
-0.19991472 0.18461847 0.87295073
-0.23335123 0.13471957 0.87341177
-0.22631702 0.13478397 0.87382925
-0.20238414 0.1347083 0.8733387
-0.19299914 0.1348042 0.87396049
-0.18340412 0.1371372 0.8736465
-0.23342872 0.14190902 0.87370181
-0.19041651 0.14418161 0.87304193
-0.23112482 0.14672147 0.87399554
-0.2286548 0.14904672 0.87366062
-0.19050597 0.15139203 0.87345207
-0.1952026 0.15372162 0.87316066
-0.22856484 0.15612966 0.87331694
-0.19295704 0.15621063 0.87376988
-0.22610676 0.16083552 0.87301743
-0.19524787 0.16089921 0.87336314
-0.21670566 0.16330394 0.873492
-0.21426362 0.16325742 0.87324315
-0.21917559 0.1657522 0.87384653
-0.197578 0.16561815 0.87313986
-0.21899007 0.1703718 0.8731069
-0.20473452 0.17753257 0.87320983
-0.20955649 0.17996563 0.87346625
-0.2047217 0.18228163 0.87315518
-0.20246728 0.18239482 0.8736974
-0.20967326 0.18483043 0.87395293
-0.20707858 0.184641 0.87305731
-0.17152616 0.20146979 0.87379497
-0.20031163 0.1349158 0.87468392
-0.18348806 0.13481745 0.87404633
-0.2335657 0.13960934 0.87421453
-0.18844929 0.13972796 0.87495738
-0.18824393 0.14195807 0.87400383
-0.22892731 0.14445575 0.87470186
-0.18827671 0.14674842 0.87415606
-0.19083989 0.14927234 0.87498307
-0.23122589 0.15155247 0.87437773
-0.18839152 0.15160644 0.8746891
-0.1930521 0.15390466 0.87420034
-0.22403149 0.15867144 0.87420541
-0.19541089 0.15865092 0.87409234
-0.19314499 0.16113093 0.87462097
-0.22174498 0.16350843 0.87458575
-0.21930978 0.16347025 0.87438154
-0.19783364 0.16344933 0.8742696
-0.22402956 0.16581883 0.87419784
-0.22160411 0.16578701 0.87403011
-0.21691151 0.16822559 0.8743217
-0.22180179 0.1707041 0.8748098
-0.19798298 0.17072748 0.87492961
-0.20017479 0.17294554 0.87408638
-0.20750099 0.17309432 0.87483829
-0.21703409 0.17547446 0.87481576
-0.21451661 0.17536585 0.87427425
-0.20981929 0.17542349 0.87456161
-0.19783378 0.17536505 0.8742702
-0.20034838 0.17786488 0.87484431
-0.21945834 0.18027626 0.87497383
-0.19787273 0.18016675 0.87444234
-0.20749798 0.18263035 0.8748256
-0.20514727 0.18743061 0.87497026
-0.16933797 0.19216223 0.87479532
-0.16920668 0.19439593 0.87411702
-0.22430457 0.13500635 0.87527102
-0.19807018 0.13501313 0.87531495
-0.19580105 0.13509373 0.87583756
-0.23619449 0.13736932 0.87512529
-0.23639452 0.14226061 0.87586647
-0.18608743 0.14213061 0.8750661
-0.18378513 0.14219482 0.87546146
-0.17895707 0.14453651 0.87519091
-0.23379241 0.14690068 0.87506306
-0.18608557 0.14689973 0.8750574
-0.18373813 0.14692998 0.87523758
-0.18142585 0.14698951 0.87559223
-0.22919843 0.15417531 0.87573773
-0.22664662 0.15406337 0.87510186
-0.23154843 0.15653735 0.87559742
-0.1909385 0.15650834 0.87543517
-0.18863691 0.15657866 0.8758285
-0.22663718 0.15882754 0.87506545
-0.22906011 0.16123933 0.87520927
-0.2243817 0.1636928 0.87557197
-0.22666509 0.16600384 0.87517321
-0.19578926 0.16611986 0.87578481
-0.21730466 0.17330566 0.87590641
-0.21493179 0.17331751 0.87596631
-0.22208668 0.17569867 0.87593347
-0.21960928 0.17562689 0.8755756
-0.21235277 0.17554714 0.87517804
-0.20760925 0.17795645 0.87529469
-0.21727693 0.18044537 0.87579465
-0.20041397 0.18269405 0.87513077
-0.19817553 0.18521693 0.87578052
-0.21012717 0.18761797 0.87584496
-0.20761584 0.18750605 0.87532246
-0.20278826 0.18745466 0.87508255
-0.16948265 0.19709958 0.8755427
-0.23651677 0.13516806 0.87631941
-0.18164976 0.13522257 0.8766728
-0.18152894 0.1375207 0.87608969
-0.18631297 0.13991471 0.87612677
-0.18155988 0.14232112 0.876239
-0.23415177 0.14473753 0.8764081
-0.23174275 0.14472499 0.87633222
-0.18868954 0.14468217 0.87607282
-0.18635304 0.14472219 0.87631518
-0.18400699 0.14475572 0.87651825
-0.18160325 0.14474419 0.87644839
-0.18878499 0.14953385 0.87651598
-0.17675929 0.15185478 0.87612194
-0.1911301 0.1542767 0.87631363
-0.22939175 0.15908363 0.87647641
-0.19357555 0.15910074 0.87657064
-0.18878035 0.16147609 0.87649447
-0.18390547 0.16139139 0.87603468
-0.22698922 0.16385224 0.87642473
-0.1959397 0.16385841 0.87645775
-0.21972966 0.16855919 0.8760556
-0.1983849 0.16868429 0.87670571
-0.22450024 0.17094308 0.87603456
-0.21981786 0.17340475 0.87640727
-0.21029787 0.17343426 0.8765564
-0.17214991 0.17351659 0.8769725
-0.22465345 0.17583886 0.87663239
-0.1721347 0.17589153 0.87689501
-0.22216767 0.18053979 0.87625289
-0.21506357 0.1805914 0.87650341
-0.21257171 0.18050423 0.87608033
-0.22221802 0.18296976 0.87645149
-0.21981418 0.18295747 0.87639254
-0.21029189 0.18298647 0.87653148
-0.21273939 0.18781644 0.87677145
-0.18165411 0.19496898 0.87669379
-0.17929947 0.19500716 0.87686545
-0.18412657 0.1400682 0.87708789
-0.17938077 0.14248744 0.87726301
-0.23694755 0.14737953 0.8779155
-0.23195609 0.14964013 0.87713897
-0.2344916 0.15212485 0.87768006
-0.23210692 0.15452242 0.87770933
-0.18904087 0.15452148 0.87770402
-0.18651517 0.15680197 0.87707758
-0.23205201 0.16166165 0.87750167
-0.19131047 0.16159512 0.87714058
-0.18658285 0.16164215 0.87739581
-0.181905 0.16173589 0.87790465
-0.19386613 0.16412553 0.87788653
-0.19377308 0.16643858 0.87746513
-0.18670838 0.16653739 0.87798607
-0.18425415 0.1664823 0.87769568
-0.22237347 0.16875334 0.87706459
-0.19617534 0.17123134 0.8775118
-0.18669516 0.17131177 0.87792397
-0.18419059 0.17120813 0.87739283
-0.22497414 0.17369691 0.87788379
-0.22236083 0.17352495 0.87701476
-0.21279804 0.17352463 0.87701315
-0.18420544 0.17600559 0.87746364
-0.18188795 0.17607756 0.8778224
-0.22016691 0.17846557 0.87779886
-0.21778281 0.17847265 0.87783372
-0.21539675 0.17847827 0.87786132
-0.21047361 0.17836189 0.87728894
-0.19848703 0.1783351 0.87715709
-0.18427186 0.18085441 0.87777996
-0.18185805 0.18083341 0.87767804
-0.19858509 0.18320754 0.87759042
-0.18183567 0.18559539 0.87757003
-0.20096457 0.18798001 0.87753505
-0.21780369 0.18806203 0.87791789
-0.21540172 0.18805425 0.87788159
-0.18188751 0.1904339 0.87782025
-0.20582728 0.19283776 0.87787056
-0.20326999 0.19268197 0.87716132
-0.20094214 0.19274254 0.87743711
-0.20574671 0.19754627 0.87752694
-0.20328732 0.19748078 0.87723607
-0.1793717 0.19747686 0.8772186
-0.17707835 0.19997849 0.87770343
-0.20331796 0.20229368 0.87736827
-0.17971078 0.13316686 0.87887692
-0.17970005 0.13555445 0.87882441
-0.23961301 0.13796414 0.87891465
-0.17954692 0.13783243 0.87807554
-0.23721179 0.1403567 0.87889451
-0.18205689 0.1403157 0.87863767
-0.17725526 0.14270139 0.87858027
-0.17970201 0.1499293 0.87883401
-0.18682018 0.15226902 0.87851185
-0.18435407 0.15699756 0.87817162
-0.23473395 0.15707186 0.87858719
-0.19167262 0.15950556 0.87880105
-0.18920076 0.15944119 0.8784464
-0.1868391 0.15946922 0.87860084
-0.1843721 0.1594069 0.87825745
-0.23002183 0.16431199 0.8788839
-0.18452284 0.16432913 0.87897551
-0.22990525 0.16662319 0.87843841
-0.19155949 0.1665936 0.87828237
-0.18910685 0.16654199 0.87801033
-0.2250253 0.16894937 0.87808341
-0.22741657 0.1713412 0.87807477
-0.18209912 0.17149082 0.87884152
-0.18444118 0.17383595 0.87858653
-0.22747169 0.17617086 0.87828755
-0.17972425 0.17630228 0.87894279
-0.22273931 0.17860964 0.87850749
-0.21321179 0.17865251 0.87871832
-0.22525728 0.18110344 0.87898862
-0.22508459 0.18335874 0.87831473
-0.21797106 0.18341672 0.87859249
-0.215609 0.18583995 0.87872636
-0.21311341 0.1857525 0.87831289
-0.19645761 0.1858501 0.8787744
-0.18443795 0.18580712 0.87857115
-0.22042294 0.18825519 0.87881964
-0.198884 0.19067061 0.87891138
-0.20832346 0.19772162 0.87830585
-0.20107567 0.1976573 0.87802017
-0.17729197 0.19782437 0.8787623
-0.20600244 0.20258175 0.87861764
-0.20108503 0.2024534 0.878061
-0.17484421 0.20255439 0.87849897
-0.23988576 0.1429182 0.87991512
-0.17505491 0.14286013 0.87955761
-0.23729761 0.14520067 0.8792125
-0.18697347 0.14999731 0.87923265
-0.23505142 0.15008992 0.87977546
-0.23257622 0.15962952 0.879484
-0.17498189 0.1595763 0.8791908
-0.19186139 0.16445832 0.87966657
-0.18947873 0.16447148 0.87973696
-0.18709181 0.16448124 0.87978917
-0.2276593 0.16912802 0.87901193
-0.19654417 0.16915682 0.8791616
-0.18706502 0.16925333 0.87966323
-0.22776189 0.17399849 0.87940806
-0.18224873 0.17402925 0.87956351
-0.19669183 0.17647865 0.87982208
-0.18464325 0.17882143 0.87954915
-0.1727355 0.17890406 0.87995559
-0.19659472 0.18118566 0.87938768
-0.17984475 0.18121542 0.8795321
-0.17260376 0.18116441 0.8792845
-0.22781894 0.18363297 0.8796283
-0.21576273 0.18357548 0.87935293
-0.21336575 0.18357547 0.87935287
-0.18454733 0.18352105 0.87909222
-0.18221992 0.18359043 0.87942451
-0.2181109 0.18593085 0.87915617
-0.17979619 0.18596013 0.87929463
-0.20610267 0.19069964 0.87904513
-0.20369616 0.19068992 0.87900037
-0.1798754 0.1908378 0.879682
-0.21099809 0.1931902 0.87947506
-0.20860742 0.19319636 0.87950307
-0.19894254 0.19312321 0.87917006
-0.18221101 0.19316967 0.87938154
-0.17742358 0.19557407 0.87941462
-0.21091992 0.19791147 0.8791492
-0.20629831 0.20047429 0.87987953
-0.20375462 0.20033145 0.87925261
-0.20144185 0.20041496 0.87961912
-0.17504683 0.20039171 0.87951708
-0.1726889 0.20043755 0.87971824
-0.18234052 0.13333802 0.88000649
-0.1776126 0.13339029 0.88035148
-0.1848017 0.15018006 0.88030386
-0.1848992 0.15266013 0.8807683
-0.23522267 0.154999 0.88041639
-0.18727808 0.15504278 0.88066506
-0.18249948 0.15746276 0.88077372
-0.18240485 0.15978071 0.88031697
-0.17996533 0.16214435 0.88012177
-0.17520963 0.16218364 0.88033503
-0.18237254 0.16694994 0.88016105
-0.23294637 0.16708702 0.88088369
-0.18477118 0.16934864 0.88015854
-0.23053116 0.17187881 0.88082993
-0.19437997 0.1717585 0.88021332
-0.18958081 0.17175803 0.88021094
-0.17999144 0.17176555 0.8802495
-0.19917856 0.17415778 0.88021314
-0.18723074 0.17420316 0.8804425
-0.1800909 0.17426121 0.88073593
-0.18719383 0.17656828 0.88026893
-0.22556716 0.1789533 0.88019782
-0.18235956 0.1789331 0.88009846
-0.19682999 0.18380244 0.88044012
-0.22332713 0.18628398 0.88082594
-0.2208261 0.18619962 0.88042706
-0.22312154 0.18851125 0.88001502
-0.19930191 0.18867047 0.88075823
-0.18248719 0.18866108 0.88071442
-0.20879667 0.19097206 0.88030088
-0.20154881 0.19092548 0.88008618
-0.18474531 0.19091444 0.88003528
-0.19686319 0.19103447 0.88058859
-0.22079611 0.19337307 0.8803075
-0.21375097 0.19351211 0.8809405
-0.18006413 0.1934384 0.88060492
-0.2064926 0.19586176 0.88070822
-0.2039407 0.19571662 0.88005561
-0.20165785 0.19582932 0.88056231
-0.18494639 0.19592512 0.88099313
-0.21850975 0.19827496 0.88076383
-0.21608187 0.19825013 0.88065356
-0.21362537 0.19819818 0.88042283
-0.19919455 0.19816688 0.88028377
-0.21608493 0.20305404 0.88066602
-0.20890097 0.20307125 0.8807407
-0.17766857 0.20304547 0.88062888
-0.20411173 0.20548436 0.88079363
-0.20174415 0.20551832 0.88093919
-0.20646787 0.2078402 0.88060272
-0.20411792 0.20789158 0.88082039
-0.20637839 0.21254881 0.88022107
-0.20649405 0.2174693 0.88071436
-0.20406434 0.21743838 0.88058913
-0.18515733 0.13363977 0.88199794
-0.18025495 0.14077888 0.88153815
-0.17299016 0.14313549 0.88125288
-0.24030584 0.1479739 0.88145602
-0.23300946 0.16473046 0.88112223
-0.18256323 0.16472282 0.88108134
-0.19470462 0.16964205 0.88168347
-0.19230734 0.16964738 0.88171118
-0.18980752 0.16956124 0.88126349
-0.19226956 0.17201698 0.88153797
-0.22840214 0.17929533 0.8818801
-0.18027055 0.17924133 0.88161451
-0.18020032 0.18397591 0.881271
-0.22581364 0.18635455 0.8811596
-0.17789474 0.18647939 0.88174993
-0.22597936 0.18889497 0.88180625
-0.21136926 0.19112852 0.88102216
-0.17791693 0.19131027 0.8818599
-0.21863014 0.1935799 0.88124907
-0.21619236 0.19354801 0.88110387
-0.19701879 0.19358772 0.88128465
-0.20910852 0.19606358 0.8816157
-0.2115791 0.2009339 0.88189679
-0.20898451 0.20075074 0.88109285
-0.22350353 0.20325132 0.88152164
-0.21874785 0.20329788 0.88172358
-0.21379769 0.20316172 0.88113302
-0.2113651 0.20313215 0.88100481
-0.1994561 0.20323239 0.88143957
-0.2066825 0.20565338 0.88151813
-0.21137953 0.20794931 0.88106495
-0.20900834 0.2079796 0.88119334
-0.20189561 0.2080757 0.8816005
-0.20679019 0.2105688 0.88197744
-0.21138395 0.21275704 0.88108337
-0.20915943 0.21293741 0.88183039
-0.20420416 0.21278338 0.88119251
-0.20189323 0.21287939 0.88159007
-0.20916639 0.21775211 0.88185972
-0.20673054 0.22252525 0.88172305
-0.17814113 0.13619407 0.88297123
-0.24067619 0.14098272 0.88281447
-0.18284316 0.15054318 0.8824324
-0.23813328 0.15292712 0.88230872
-0.18524003 0.1553468 0.88239187
-0.2357268 0.16254625 0.8823033
-0.18050498 0.1674431 0.88276094
-0.23083782 0.16970327 0.8820017
-0.18283889 0.16978218 0.88241178
-0.19726196 0.174585 0.88237238
-0.19010253 0.17463662 0.88263327
-0.23087156 0.17694171 0.88213056
-0.19492343 0.17705077 0.88267428
-0.17812641 0.17709568 0.88289821
-0.22849347 0.18177184 0.88223273
-0.194867 0.18181017 0.88241875
-0.18763337 0.18179308 0.88233578
-0.17801456 0.18179473 0.88234383
-0.17324834 0.18424669 0.88256812
-0.22859153 0.18666157 0.88261133
-0.17325325 0.18665773 0.88259315
-0.18521856 0.18899851 0.88228959
-0.18037854 0.18896702 0.8821426
-0.22123237 0.19135082 0.88204682
-0.21900369 0.1915044 0.8827548
-0.2165771 0.19148642 0.88267189
-0.21403685 0.1913664 0.8821187
-0.1948768 0.19144113 0.88246316
-0.22364089 0.19375877 0.88206339
-0.18522732 0.19381763 0.88233131
-0.17801592 0.19382186 0.88235056
-0.2116583 0.19619951 0.88222694
-0.19971514 0.19627899 0.88258433
-0.17567103 0.19629432 0.8826533
-0.22122768 0.19855955 0.8820281
-0.18280563 0.1986098 0.88225126
-0.17563024 0.19865417 0.88244838
-0.18038419 0.20099622 0.88217026
-0.21665214 0.20118019 0.88297772
-0.21419188 0.20113005 0.88275766
-0.19968705 0.20106228 0.88246024
-0.22123124 0.20337138 0.88204235
-0.22143768 0.20837423 0.88286537
-0.21899948 0.20834413 0.88273782
-0.2116642 0.21063423 0.8822515
-0.2093741 0.21074976 0.88273543
-0.21644367 0.21300931 0.88212812
-0.21411633 0.21308614 0.88244629
-0.20685647 0.21544608 0.88226014
-0.20450063 0.21549779 0.88247186
-0.21172793 0.21791446 0.88251716
-0.20204037 0.2178442 0.88223267
-0.21175027 0.22274916 0.88261026
-0.2093817 0.22278883 0.88276744
-0.20450078 0.22271439 0.88247252
-0.1782503 0.13868585 0.88351232
-0.24085887 0.1459062 0.88348454
-0.23852295 0.1507684 0.88375247
-0.23856427 0.15802267 0.88390559
-0.23600209 0.16032825 0.88333368
-0.18058214 0.16029279 0.8831383
-0.2312004 0.17478576 0.88338703
-0.19021381 0.17714617 0.88314992
-0.19740996 0.17952999 0.88303435
-0.18789873 0.17964168 0.88358366
-0.23128885 0.18448821 0.88372499
-0.187857 0.18441774 0.88338745
-0.17831367 0.18450937 0.88382638
-0.19512834 0.18687113 0.8836022
-0.18785967 0.18682836 0.88340002
-0.19742031 0.18916798 0.88308072
-0.19505253 0.18920615 0.88325894
-0.22393195 0.19160345 0.88321137
-0.17339911 0.19163053 0.88333619
-0.21438609 0.19649553 0.88355803
-0.17344102 0.19649369 0.88354975
-0.1975224 0.19889931 0.88353735
-0.22640423 0.20369922 0.88346422
-0.22389244 0.20601204 0.88305551
-0.21186304 0.20601784 0.8830803
-0.20948857 0.20604996 0.88321805
-0.199945 0.20613912 0.88360018
-0.22390927 0.20843481 0.88312197
-0.2167291 0.2084748 0.88329142
-0.2142508 0.20840614 0.88300049
-0.19982658 0.20842415 0.88307685
-0.20467997 0.21087159 0.88324571
-0.20243347 0.21103953 0.8839491
-0.21919918 0.21335091 0.88354278
-0.20003115 0.21345671 0.88398087
-0.20966132 0.21585786 0.88394636
-0.20228341 0.21569854 0.88329393
-0.21689034 0.21826789 0.8839485
-0.214432 0.21821819 0.88374722
-0.20719805 0.22061959 0.883717
-0.20480722 0.22063904 0.88379484
-0.1759852 0.13397825 0.88423187
-0.18082054 0.15809393 0.88430417
-0.18080615 0.16531219 0.88423377
-0.17613682 0.1678666 0.88499367
-0.1809397 0.17025842 0.88488698
-0.23382917 0.17254071 0.88422197
-0.17838337 0.17253093 0.88417184
-0.19525369 0.17494065 0.88416982
-0.19299397 0.17507707 0.88485932
-0.17852473 0.17507969 0.88487256
-0.19525662 0.18458383 0.88418305
-0.22903204 0.18943177 0.88431221
-0.17837593 0.18939382 0.88413501
-0.22672027 0.19433738 0.88469744
-0.22181034 0.19667193 0.88435119
-0.21932431 0.19660431 0.88404715
-0.21693033 0.19661863 0.88411152
-0.19778568 0.19675283 0.88471496
-0.22415382 0.19902292 0.88408643
-0.19536877 0.19915901 0.88469094
-0.17359468 0.19907831 0.88433248
-0.21944259 0.20153248 0.88452393
-0.22678263 0.20645188 0.8849408
-0.2217519 0.20625997 0.8841182
-0.21711382 0.20643286 0.88485932
-0.21471725 0.20644769 0.88492286
-0.21473062 0.21128516 0.88497794
-0.21213116 0.21591929 0.88419789
-0.20013785 0.21839231 0.8844524
-0.21224736 0.22086056 0.88468218
-0.20976089 0.22078165 0.88436615
-0.21713464 0.22333819 0.8849442
-0.21460117 0.22321208 0.88444448
-0.20248617 0.22314516 0.88417929
-0.18338816 0.15340444 0.88506263
-0.18098208 0.15340993 0.88509423
-0.23904258 0.15592527 0.88567775
-0.18355508 0.15595882 0.88586825
-0.17858045 0.15583214 0.8851487
-0.17857827 0.15824299 0.88513792
-0.23666771 0.16560967 0.88582504
-0.23650093 0.16790588 0.8852008
-0.23406284 0.17030048 0.88510561
-0.17618467 0.17273821 0.88523406
-0.23423728 0.17767076 0.88576525
-0.19302687 0.17751931 0.88501012
-0.17623684 0.1776168 0.8854962
-0.19548532 0.17997411 0.88521874
-0.17857303 0.1799524 0.88511193
-0.23174179 0.18002227 0.88545561
-0.19079514 0.18251692 0.88584894
-0.17387924 0.18974665 0.88578212
-0.22690728 0.19208415 0.88542718
-0.17630102 0.19216909 0.88581866
-0.19544789 0.19441466 0.88504922
-0.1762666 0.1945457 0.88564575
-0.17382139 0.19451091 0.88548738
-0.22701085 0.19941573 0.8858313
-0.22449601 0.20174031 0.88543606
-0.22207218 0.20173098 0.88539517
-0.22941594 0.20423649 0.88579446
-0.21972373 0.20661899 0.88565713
-0.22703293 0.2090946 0.88591748
-0.21980309 0.21152368 0.88597703
-0.21715766 0.21129949 0.88503802
-0.20037714 0.21141216 0.88550991
-0.22220463 0.21392572 0.88592321
-0.21720785 0.21617438 0.88524252
-0.21482041 0.21620014 0.88534802
-0.20045406 0.21632268 0.88584977
-0.2196258 0.21859232 0.88526237
-0.20284486 0.22112602 0.88574553
-0.22221316 0.22359386 0.88595724
-0.21976459 0.22355968 0.88582182
-0.17881541 0.14154147 0.88631332
-0.17882639 0.16329505 0.88636774
-0.17635415 0.1656584 0.88608569
-0.19087435 0.18017702 0.88621676
-0.23195918 0.18260702 0.88628626
-0.19326988 0.18257366 0.88612431
-0.17645237 0.18266737 0.88657916
-0.23206951 0.18752792 0.88670778
-0.19343248 0.1875622 0.88686985
-0.1765293 0.18758246 0.88696569
-0.23208591 0.18995838 0.88677049
-0.18852478 0.19232289 0.88652766
-0.22467279 0.19706827 0.88613337
-0.19569032 0.1970713 0.88614702
-0.19330266 0.19951552 0.88627464
-0.19808541 0.2018815 0.88605577
-0.1981189 0.20433126 0.88620549
-0.1982841 0.20933701 0.88694453
-0.22245948 0.21175343 0.88693929
-0.19819671 0.21407793 0.88655359
-0.21989256 0.21644181 0.88633764
-0.22478123 0.21891299 0.88656104
-0.22222531 0.21877584 0.88600564
-0.21762928 0.22142924 0.88696015
-0.21499738 0.22120886 0.88607734
-0.17673203 0.13696732 0.88798428
-0.17903559 0.16106714 0.88740462
-0.23942691 0.16343027 0.88710177
-0.23722495 0.17326051 0.88791072
-0.23471303 0.17561227 0.8875643
-0.17661941 0.17558341 0.88741845
-0.23473592 0.18046859 0.88765085
-0.19361836 0.18048306 0.88772207
-0.19347461 0.18518505 0.88706297
-0.19111963 0.18524611 0.88735551
-0.18867198 0.19005463 0.88721985
-0.22990012 0.19498903 0.88766396
-0.1936745 0.19747883 0.88797951
-0.18879449 0.197438 0.88779593
-0.2299469 0.19986895 0.88784456
-0.22731696 0.20210253 0.88702583
-0.19608763 0.2023122 0.88794613
-0.19849981 0.21198504 0.88790941
-0.22506961 0.2143544 0.88769847
-0.22752509 0.21922828 0.88783795
-0.19838758 0.21912196 0.88740736
-0.22493324 0.22389755 0.88716054
-0.20078614 0.22393712 0.88731736
-0.17685714 0.13948649 0.88861293
-0.17932196 0.16859315 0.88882405
-0.17682883 0.17094794 0.88847065
-0.17687041 0.18067773 0.88867956
-0.23504294 0.18555015 0.88881189
-0.17676282 0.18540967 0.88813895
-0.19133359 0.18787502 0.888349
-0.17688747 0.19038568 0.88876528
-0.23021929 0.19283673 0.88889629
-0.18897717 0.19520672 0.88865495
-0.22759318 0.19750644 0.88810366
-0.19612545 0.2047721 0.88811743
-0.23008452 0.20725328 0.88837594
-0.19853853 0.20718484 0.88808256
-0.23010364 0.20969225 0.88844973
-0.22519743 0.21205503 0.88820261
-0.19619858 0.21453553 0.8884486
-0.22274338 0.21686514 0.88807118
-0.19859236 0.21692672 0.88832337
-0.22295119 0.22191347 0.88889974
-0.22030994 0.22169384 0.88802004
-0.20100887 0.22176416 0.88830167
-0.18184942 0.1565693 0.88933593
-0.24008697 0.16873035 0.88954735
-0.23757885 0.17109509 0.88923538
-0.17940453 0.17109469 0.88923329
-0.23275907 0.20020616 0.88934255
-0.23027782 0.20258017 0.88912225
-0.19404401 0.20270582 0.88967365
-0.18179536 0.20499209 0.88907152
-0.23283234 0.20511912 0.88962251
-0.19410333 0.20519362 0.88994563
-0.19636305 0.20986776 0.8891933
-0.19649871 0.21243823 0.88980764
-0.2254436 0.21713433 0.88917351
-0.19653192 0.2173259 0.88995802
-0.19640447 0.21960929 0.88938093
-0.22550985 0.22204705 0.88943481
-0.17724599 0.14222071 0.89056665
-0.17967084 0.16649365 0.8905533
-0.23785928 0.17857735 0.89028496
-0.19422513 0.19318552 0.89050406
-0.23297575 0.19553962 0.89017045
-0.23058791 0.19799924 0.89031959
-0.1870167 0.20054665 0.89085501
-0.19186091 0.20538999 0.89079726
-0.19663447 0.20773071 0.8904224
-0.228192 0.21258928 0.89044034
-0.22809924 0.21492907 0.89007837
-0.19416463 0.2149649 0.89022672
-0.22820041 0.22230627 0.89047313
-0.19911367 0.22235171 0.89065522
-0.23572131 0.18365592 0.89137709
-0.23565719 0.19089323 0.89113462
-0.19435513 0.19088584 0.89110011
-0.19194351 0.19333233 0.89118075
-0.18470564 0.20310393 0.89142102
-0.19448411 0.21045738 0.89169151
-0.19440003 0.21279594 0.89130592
-0.19196272 0.21521682 0.89126998
-0.22856703 0.21780106 0.89190382
-0.19442113 0.2176787 0.89140272
-0.23084405 0.22008526 0.89130855
-0.19445641 0.22014846 0.89156449
-0.1968068 0.22248842 0.89120281
-0.23832914 0.17649855 0.89204365
-0.23855034 0.18153001 0.89287156
-0.2359395 0.18868992 0.8922022
-0.19218251 0.19114082 0.89229041
-0.23356356 0.19360039 0.89241636
-0.19456892 0.19595915 0.89208031
-0.19226311 0.19608751 0.89266467
-0.19214509 0.20083068 0.89211673
-0.23361884 0.20337884 0.8926276
-0.19466786 0.20822331 0.89253396
-0.19224812 0.21067064 0.89259505
-0.23115101 0.21307953 0.89249372
-0.19224763 0.21310318 0.89259279
-0.2310534 0.2154213 0.89211684
-0.19231871 0.2180499 0.89292282
-0.1923099 0.22047377 0.89288193
-0.23127159 0.22292693 0.8929593
-0.19460519 0.22274901 0.8922466
-0.23639841 0.19636711 0.89393753
-0.23386006 0.19871749 0.89354926
-0.19249964 0.19876499 0.89376283
-0.23630807 0.20116368 0.89359593
-0.19240016 0.20840225 0.89330095
-0.23386575 0.21090099 0.89357102
-0.18997027 0.21571304 0.89332497
-0.19253038 0.22316317 0.89390558
-0.19273831 0.20388998 0.894871
-0.23646636 0.20617329 0.89419448
-0.23412256 0.20869417 0.89455223
-0.19013543 0.21102624 0.89410168
-0.19028117 0.21362703 0.89478695
-0.23178555 0.2185434 0.89494371
-0.19015749 0.22080055 0.89420533
-0.19034386 0.20149817 0.89508176
-0.19051273 0.20656095 0.89587587
-0.19041117 0.21865439 0.89539826
-0.18794003 0.22105932 0.89525336
-0.23697385 0.19440246 0.89611357
-0.23699442 0.20419081 0.8961913
-0.23452742 0.21638292 0.89609915
-0.23453671 0.22127692 0.89613461
-0.23738433 0.19963297 0.8976658
-0.19093831 0.20457491 0.89787716
-0.23485637 0.21424037 0.89735603
-0.18849865 0.2192688 0.89791429
-0.18859227 0.204685 0.89836031
-0.18611337 0.20710027 0.89821494
-0.19112226 0.20967165 0.89874214
-0.18866564 0.21701333 0.89870983
-0.18893456 0.20750973 0.8999908
-0.18890336 0.21238112 0.8998422
-0.23542233 0.21966055 0.89951849
-0.18415627 0.21010919 0.9006176
-0.18906581 0.21501867 0.90061599
-0.23851642 0.21779497 0.90194678
-0.18961041 0.21071401 0.90321016
-0.1874111 0.21347526 0.90447801
-0.1873125 0.21829127 0.90400213
-0.18752366 0.21113653 0.90502125
-0.18270192 0.21373466 0.90557706
-0.18760547 0.21616468 0.90541607
-0.18533635 0.21392626 0.90638882
-0.18626207 0.21747778 0.91091603
-0.18620323 0.21989129 0.91062826
