# .PCD v0.7 - Point Cloud Data file format
VERSION 0.7
FIELDS x y z
SIZE 4 4 4
TYPE F F F
COUNT 1 1 1
WIDTH 830
HEIGHT 1
VIEWPOINT 0 0 0 1 0 0 0
POINTS 830
DATA ascii
-0.18916379 0.15856501 0.83595568
-0.18900095 0.16298194 0.83523601
-0.19160914 0.15414172 0.83668345
-0.18918243 0.15402283 0.83603805
-0.19148844 0.15860309 0.83615643
-0.18701322 0.1586737 0.83652872
-0.18709323 0.16330403 0.83688658
-0.18694416 0.16773272 0.83621979
-0.1871044 0.18156463 0.83693659
-0.18948507 0.14970413 0.83737552
-0.1872924 0.15434329 0.8377775
-0.18503866 0.15893626 0.83791292
-0.1894702 0.16566898 0.83730978
-0.18729635 0.17261611 0.8377952
-0.18503179 0.17263396 0.8378818
-0.18505625 0.18179372 0.83799261
-0.18718044 0.18848526 0.83727676
-0.18485759 0.1884439 0.837093
-0.19212714 0.14998478 0.83894533
-0.18740588 0.14986674 0.83828515
-0.19195095 0.15670143 0.83817601
-0.18963595 0.15667643 0.83804226
-0.18973732 0.16133137 0.83849025
-0.18510428 0.1635623 0.83821011
-0.18982443 0.16826534 0.83887517
-0.18510397 0.16813165 0.83820868
-0.18963949 0.17723906 0.83805794
-0.18740901 0.17729008 0.83829916
-0.18981053 0.18197186 0.83881378
-0.18735042 0.18408772 0.83803707
-0.18746348 0.19334173 0.83854276
-0.19223413 0.15235642 0.83941257
-0.18993694 0.15234911 0.8393724
-0.18538283 0.15465537 0.83947146
-0.18764138 0.15691878 0.83933854
-0.18318231 0.15930821 0.83987379
-0.18774432 0.16158317 0.83979899
-0.18759187 0.16602656 0.83911705
-0.18760423 0.17061242 0.83917242
-0.18534766 0.17064084 0.8393122
-0.18986771 0.17287803 0.83906645
-0.18758903 0.18660945 0.83910441
-0.18539801 0.18670636 0.83954024
-0.18306945 0.18895341 0.8393563
-0.18772949 0.19132712 0.83973271
-0.18797153 0.14573523 0.84081537
-0.18793263 0.14799653 0.84064132
-0.18556842 0.16168186 0.84031188
-0.18569876 0.16637975 0.84090209
-0.18321507 0.1730753 0.84002393
-0.18779178 0.17994192 0.8400113
-0.19022743 0.18008006 0.84065616
-0.18569644 0.18013048 0.8408916
-0.18567345 0.18469189 0.84078747
-0.19011645 0.18913561 0.84016567
-0.18558428 0.19147545 0.84038371
-0.1902606 0.19386281 0.84080273
-0.18553431 0.19371402 0.84015745
-0.1903294 0.14807847 0.84110677
-0.18572338 0.15035453 0.84101361
-0.18811645 0.15272868 0.84146357
-0.19493881 0.15497568 0.84121019
-0.1857377 0.15724406 0.8410784
-0.183644 0.16200486 0.84199059
-0.18355407 0.16421953 0.84157825
-0.19037029 0.17562887 0.84128749
-0.18820748 0.17575063 0.84187078
-0.1859334 0.17577022 0.8419646
-0.18575832 0.17789762 0.8411718
-0.18364128 0.18265833 0.84197813
-0.1903097 0.1847429 0.84101969
-0.18363982 0.18724704 0.8419714
-0.1836316 0.19182861 0.84193373
-0.19053338 0.14594199 0.84200823
-0.19286557 0.14826562 0.84216976
-0.18376456 0.1552213 0.84254336
-0.18384656 0.16907653 0.84291929
-0.19065318 0.1712966 0.84253758
-0.18366688 0.17120671 0.84209549
-0.18367866 0.1758088 0.84214944
-0.18371651 0.17814107 0.84232301
-0.19070578 0.18742464 0.84277004
-0.19060038 0.19191304 0.84230429
-0.18371929 0.19421628 0.84233576
-0.18825302 0.1964514 0.84207445
-0.18845211 0.19895694 0.84296501
-0.19310771 0.14615327 0.84322715
-0.18633644 0.14855081 0.84378976
-0.1955502 0.15316154 0.84384847
-0.1862932 0.15311533 0.8435939
-0.18387173 0.15760979 0.84303468
-0.19322984 0.16234538 0.84376043
-0.19310653 0.16454026 0.84322196
-0.18402228 0.18533716 0.84372497
-0.18631722 0.19683124 0.84370267
-0.18645163 0.14634117 0.8443113
-0.19566946 0.15095335 0.84436309
-0.18423726 0.16713329 0.84471059
-0.1934005 0.17860268 0.84450567
-0.18413128 0.18084449 0.84422469
-0.18440701 0.15115462 0.84548891
-0.19123006 0.19715419 0.84508699
-0.18667041 0.19950853 0.84530205
-0.18468641 0.1536918 0.84676993
-0.19376616 0.17432769 0.84610236
-0.18229498 0.19514951 0.84638327
-0.18455051 0.19740145 0.84614682
-0.19397746 0.16990007 0.84702498
-0.19414151 0.18159778 0.84774131
-0.19668818 0.1471121 0.84875911
-0.19659692 0.14935637 0.84836537
-0.18265863 0.16086319 0.84807169
-0.19420816 0.16779053 0.84803236
-0.18277754 0.1748472 0.84862381
-0.19422536 0.17705262 0.84810746
-0.18279576 0.17949151 0.84870839
-0.18268332 0.18400514 0.84818631
-0.18517585 0.14947055 0.84901398
-0.18289089 0.16338238 0.84915006
-0.18289635 0.16570199 0.84917539
-0.18292303 0.17730142 0.84929931
-0.19454359 0.18428949 0.84949702
-0.19444862 0.18651399 0.84908235
-0.18307036 0.18671189 0.84998333
-0.19446906 0.191163 0.84917164
-0.1829018 0.19116956 0.84920073
-0.18326275 0.17067266 0.85087663
-0.18321712 0.17294893 0.85066473
-0.18326277 0.18226942 0.85087669
-0.18565682 0.1475385 0.85121918
-0.1833581 0.15683809 0.85131931
-0.18333939 0.1591424 0.85123241
-0.18339293 0.16847289 0.85148102
-0.183412 0.18938157 0.85156953
-0.19059588 0.14544599 0.85255432
-0.18352585 0.19414449 0.85209811
-0.19545303 0.1456019 0.85346824
-0.19309501 0.14557807 0.85332859
-0.18924756 0.14619967 0.85697222
-0.20336948 0.13459003 0.85741955
-0.20107681 0.13461983 0.85760939
-0.20343255 0.13930759 0.85768539
-0.1987474 0.14631449 0.85764521
-0.20603299 0.13480355 0.85877973
-0.20366913 0.13712898 0.85868287
-0.2012696 0.13708885 0.85843164
-0.20122343 0.13939682 0.85823476
-0.19892603 0.13942626 0.85841602
-0.20119986 0.14873704 0.85813421
-0.19913884 0.1348906 0.85933435
-0.20615442 0.13956754 0.85928583
-0.19915819 0.14427425 0.85941786
-0.19687767 0.14431979 0.85968912
-0.19707943 0.13508458 0.86057013
-0.20637363 0.13737118 0.86019957
-0.19929907 0.13734342 0.86002576
-0.19705567 0.13975929 0.86046636
-0.20639858 0.14442293 0.86030352
-0.19466396 0.14441597 0.8602621
-0.20181526 0.15153828 0.86075896
-0.21140048 0.13524221 0.86157429
-0.20904972 0.13524075 0.86156499
-0.19722869 0.13753444 0.86122185
-0.20441245 0.14467697 0.86181676
-0.20200738 0.14463694 0.86157835
-0.19264977 0.14466435 0.86174154
-0.2234807 0.13544686 0.86287802
-0.21396376 0.13537809 0.86243999
-0.19517368 0.13538982 0.86251467
-0.19285417 0.13541199 0.86265588
-0.2092939 0.13774996 0.86257142
-0.21170396 0.14014013 0.86281115
-0.20927176 0.14008637 0.86248016
-0.20689753 0.14242135 0.86238325
-0.2045493 0.14242308 0.86239374
-0.202281 0.14248115 0.86274534
-0.19987263 0.14244077 0.86250085
-0.2092426 0.14476815 0.86235994
-0.20224775 0.1471604 0.8626036
-0.20692562 0.14949381 0.86250031
-0.22118646 0.13548227 0.86310363
-0.21882655 0.1354778 0.86307514
-0.21651155 0.13550133 0.86322504
-0.21176726 0.13782944 0.86306912
-0.21657664 0.14024951 0.86348456
-0.21431978 0.14031292 0.86387503
-0.19544786 0.14028877 0.86372632
-0.19785735 0.14268291 0.863967
-0.21655196 0.14494044 0.86338621
-0.21179046 0.14490308 0.86316365
-0.20944123 0.14961137 0.86317855
-0.22614235 0.13563253 0.86406088
-0.19080946 0.13563003 0.8640449
-0.18864979 0.13577078 0.86494166
-0.21447226 0.13805629 0.86448961
-0.19570428 0.13811536 0.86485952
-0.21919553 0.14041938 0.86453044
-0.20981914 0.14280991 0.86473608
-0.21920995 0.14514208 0.86458731
-0.2145492 0.14517774 0.86479974
-0.2098116 0.14751889 0.86470497
-0.20728667 0.14739951 0.86400527
-0.18854417 0.14747664 0.86445737
-0.21216972 0.1498767 0.86470938
-0.20513749 0.14990516 0.86487359
-0.22898221 0.13592017 0.86589324
-0.22177409 0.14056008 0.86539668
-0.21708664 0.14293905 0.86551797
-0.21235378 0.14292939 0.8654595
-0.21482682 0.14300524 0.86591876
-0.19120802 0.145354 0.86584973
-0.20532875 0.14768521 0.86567992
-0.2147264 0.15001616 0.86551404
-0.20773131 0.15479626 0.86585855
-0.21245517 0.15951926 0.86587274
-0.22441964 0.13837788 0.8665033
-0.22213142 0.13842382 0.86679101
-0.21957722 0.13830322 0.86603588
-0.21720797 0.13829777 0.86600167
-0.19361503 0.13830696 0.8660593
-0.22445445 0.14076164 0.86663771
-0.19362184 0.14067265 0.86608976
-0.21965906 0.14307788 0.86635864
-0.22209923 0.14549093 0.86666542
-0.21249627 0.14774668 0.86604023
-0.21740396 0.15023613 0.86678308
-0.20793456 0.15258521 0.86670572
-0.21270277 0.1549792 0.86688185
-0.21020652 0.154881 0.86633259
-0.19619335 0.14318724 0.86702085
-0.21518357 0.14797129 0.86735678
-0.22006048 0.14807111 0.86794192
-0.21986654 0.15030441 0.86717701
-0.21048333 0.15272038 0.86747342
-0.2152122 0.15508473 0.86747211
-0.20340224 0.15509464 0.86752754
-0.21518868 0.15979645 0.86737734
-0.18702209 0.13630281 0.86833096
-0.22734928 0.13872427 0.86867243
-0.19184288 0.13873261 0.86872464
-0.2272782 0.14104801 0.86840081
-0.1918755 0.14112459 0.86887228
-0.22264494 0.14348021 0.86879486
-0.21773149 0.14809619 0.86808896
-0.22257958 0.15054061 0.86853981
-0.21072575 0.15999821 0.86847252
-0.21784002 0.16000727 0.86852163
-0.20365691 0.16002424 0.86861378
-0.23222308 0.13643754 0.8691892
-0.18957888 0.13880876 0.86920142
-0.18963835 0.14122234 0.86947411
-0.19448528 0.1436713 0.86995196
-0.22527286 0.14601676 0.86979771
-0.22287573 0.14837025 0.86969543
-0.21573751 0.15309292 0.86958957
-0.21337815 0.15310082 0.86963439
-0.20616202 0.15302312 0.86919308
-0.21811737 0.15547004 0.86962742
-0.20627287 0.15547596 0.86966044
-0.21324725 0.15774496 0.86910093
-0.20855854 0.16015188 0.86930662
-0.21580936 0.16499966 0.86987919
-0.21326759 0.16486777 0.86918384
-0.21092908 0.16489179 0.8693105
-0.23010929 0.13421728 0.87015533
-0.22783303 0.13427365 0.87052077
-0.18747982 0.14138186 0.87045616
-0.225491 0.14378494 0.87063998
-0.22539361 0.15083945 0.87026393
-0.22081256 0.15332507 0.8709082
-0.22061914 0.15556264 0.87014532
-0.21589445 0.15794846 0.87022215
-0.21116647 0.15796058 0.87028891
-0.20403858 0.15795198 0.87024158
-0.20885998 0.15801033 0.87056303
-0.22549497 0.16040033 0.87065524
-0.22316296 0.16043 0.87081629
-0.22076647 0.16041344 0.87072641
-0.21604493 0.16280603 0.87082869
-0.21351928 0.16269028 0.87020957
-0.21369295 0.16994455 0.87091738
-0.21119994 0.16984883 0.87042683
-0.2327939 0.1343978 0.87132573
-0.23034863 0.13910562 0.87106037
-0.18768458 0.13916095 0.87140685
-0.23046771 0.14155313 0.87151068
-0.22808321 0.14629862 0.87147665
-0.18998006 0.14622545 0.87104082
-0.22573832 0.14869429 0.87159485
-0.21860181 0.15343961 0.87155885
-0.22576275 0.15583865 0.8716892
-0.22331235 0.15578681 0.87139922
-0.21867201 0.15824188 0.87183875
-0.21857543 0.16292287 0.8714537
-0.21144736 0.16292155 0.87144655
-0.22342674 0.16537265 0.8718456
-0.22100236 0.16533685 0.87165678
-0.21853773 0.16526981 0.87130338
-0.20916922 0.16537388 0.87185204
-0.20424615 0.16523632 0.87112689
-0.2162452 0.17008477 0.87163597
-0.20917305 0.17013006 0.87186801
-0.21388972 0.17485337 0.8717193
-0.21134518 0.17471418 0.87102538
-0.20912118 0.17483982 0.87165177
-0.22589038 0.13452989 0.87218201
-0.1902972 0.13457814 0.87249488
-0.18552773 0.13694689 0.87243414
-0.18799853 0.14891089 0.87286448
-0.22833687 0.15121764 0.87244588
-0.2236162 0.15362026 0.87258488
-0.18551967 0.15358704 0.87239623
-0.22840378 0.16077732 0.87270153
-0.22360399 0.16312546 0.87253726
-0.20460747 0.16314989 0.87266797
-0.22608621 0.16557989 0.8729381
-0.21177712 0.16793388 0.8728056
-0.20452861 0.17022052 0.87233162
-0.23566842 0.13468324 0.87317616
-0.19285065 0.13470049 0.87328809
-0.18822673 0.13479859 0.87392402
-0.23574072 0.13710542 0.87344402
-0.18577263 0.14189017 0.87358576
-0.2285284 0.14420402 0.87317765
-0.19298041 0.14431931 0.87387568
-0.23109911 0.14670515 0.87389833
-0.18569417 0.15135126 0.87321687
-0.22626586 0.15856732 0.87363178
-0.22385225 0.15854448 0.87350595
-0.22135754 0.15846312 0.87305766
-0.20716028 0.16090633 0.87340182
-0.22626071 0.16332635 0.87361187
-0.22140433 0.16325724 0.8732422
-0.20952623 0.16327554 0.87334007
-0.21663399 0.16801035 0.8732031
-0.2143947 0.16812086 0.87377739
-0.21917374 0.17051469 0.87383914
-0.20722011 0.17047855 0.87365401
-0.21200316 0.17287645 0.87373716
-0.20961505 0.17287114 0.87371033
-0.2166502 0.1751641 0.87326843
-0.2120472 0.18005887 0.87391871
-0.19544937 0.1348511 0.87426448
-0.23367424 0.13967422 0.8746208
-0.23377489 0.14211947 0.8749975
-0.18834563 0.14680213 0.87447602
-0.22898859 0.14926429 0.87493598
-0.22637035 0.15387557 0.87403518
-0.22880948 0.15629674 0.8742516
-0.20741522 0.15872067 0.87447667
-0.20743838 0.16589025 0.8745743
-0.20496176 0.16819814 0.87417907
-0.22179438 0.17069839 0.8747806
-0.21701205 0.17307229 0.87472695
-0.21454301 0.17300402 0.8743819
-0.21942599 0.17548031 0.87484485
-0.2073576 0.17535773 0.87423372
-0.20492302 0.17531361 0.87401378
-0.20969032 0.18008056 0.87402403
-0.20978527 0.18492916 0.87441981
-0.20507926 0.18498422 0.87468016
-0.18609031 0.13497683 0.87507963
-0.2243059 0.13500716 0.87527621
-0.18383731 0.13746111 0.87571001
-0.18613705 0.13978259 0.87529945
-0.23155738 0.14460924 0.87563127
-0.19096115 0.144594 0.875539
-0.23148046 0.15171933 0.8753404
-0.22922197 0.16374062 0.87582773
-0.20773725 0.16374186 0.87583435
-0.2291273 0.16605937 0.87546599
-0.22202566 0.1684894 0.87569278
-0.21956606 0.1684337 0.87540334
-0.2099455 0.16837296 0.87508768
-0.21967089 0.17328882 0.87582129
-0.20757768 0.17315829 0.87516159
-0.20524399 0.17320205 0.87538278
-0.21250004 0.17805612 0.87578493
-0.21006718 0.17801748 0.87559485
-0.21730764 0.18047087 0.87591839
-0.21492082 0.18047152 0.87592161
-0.20759177 0.18032718 0.87522101
-0.20516902 0.18029463 0.87506306
-0.20774572 0.18523587 0.87587005
-0.2053778 0.19241664 0.8759535
-0.20047444 0.2113834 0.87539482
-0.18407717 0.1352503 0.87685263
-0.18393473 0.14231057 0.87617409
-0.18875726 0.14473408 0.87638718
-0.23424117 0.14718266 0.87674272
-0.18646997 0.14720319 0.87686503
-0.23186584 0.14958191 0.87679768
-0.22942612 0.15910746 0.87660772
-0.22471575 0.16871695 0.87687552
-0.20779444 0.16856302 0.87607545
-0.22467524 0.17107633 0.87671739
-0.22214185 0.1757423 0.87615103
-0.20561224 0.17829369 0.87695342
-0.21269076 0.18299472 0.876571
-0.21019481 0.18290199 0.87612683
-0.23927112 0.13776729 0.87766057
-0.1818579 0.13776992 0.87767732
-0.18661125 0.1449227 0.87752938
-0.18419567 0.14729586 0.87741709
-0.23434797 0.15203167 0.87714249
-0.22974052 0.15453997 0.87780899
-0.23204915 0.16165966 0.87749088
-0.22737056 0.16891351 0.87789708
-0.22243269 0.17358102 0.87729812
-0.22474991 0.17591436 0.8770088
-0.21768256 0.1783905 0.8774296
-0.21528885 0.17838886 0.87742156
-0.2080559 0.1783393 0.87717777
-0.22018109 0.18086997 0.87785542
-0.20807159 0.1831352 0.87724394
-0.20570228 0.18315472 0.8773374
-0.21292137 0.18558511 0.8775214
-0.21292217 0.18797781 0.87752473
-0.21045056 0.18790671 0.87719285
-0.2058409 0.18806434 0.87792867
-0.18201521 0.13549462 0.87843657
-0.17967737 0.13793257 0.87871349
-0.23714332 0.1403162 0.87864083
-0.18436301 0.14024806 0.87821418
-0.23720606 0.14274898 0.87887329
-0.18204504 0.14270143 0.87858051
-0.1844054 0.14506915 0.87841612
-0.18689837 0.14993706 0.87887949
-0.22750789 0.17140999 0.87842733
-0.2227976 0.17865638 0.87873739
-0.22024882 0.17853196 0.87812543
-0.22262266 0.18090951 0.87804741
-0.22517298 0.18103567 0.87865967
-0.21563153 0.18825488 0.87881815
-0.20833626 0.18815669 0.87835985
-0.20602129 0.19062434 0.87869805
-0.21078809 0.19299792 0.8785997
-0.20601882 0.19541237 0.8786875
-0.21087269 0.19786716 0.87895238
-0.20608039 0.19786665 0.87895012
-0.20368424 0.20984575 0.87894893
-0.18227465 0.14048353 0.87968868
-0.17991962 0.140517 0.87989825
-0.17973778 0.14277102 0.87900895
-0.23492116 0.14521311 0.87928784
-0.18227521 0.14767765 0.8796913
-0.23491086 0.15000015 0.87924933
-0.18472213 0.1501154 0.87992483
-0.18452916 0.15235461 0.87900561
-0.23246849 0.15715936 0.8790766
-0.18461333 0.15721835 0.87940663
-0.18462521 0.16202302 0.8794632
-0.23250918 0.16677342 0.87923044
-0.22532645 0.1739689 0.87925851
-0.22774024 0.17637885 0.87932444
-0.22301491 0.18362591 0.87959445
-0.22048236 0.18351361 0.87905657
-0.21823554 0.18363927 0.87965852
-0.21578135 0.18359131 0.87942874
-0.21823497 0.18843441 0.87965626
-0.20858201 0.19317283 0.8793959
-0.21102597 0.20760147 0.87959123
-0.20376472 0.21232548 0.87929618
-0.17766936 0.13823384 0.88063282
-0.18237515 0.14535941 0.88017368
-0.18493164 0.15508817 0.88092285
-0.23295356 0.16469094 0.88091087
-0.23033214 0.16933151 0.88006949
-0.23044726 0.17181626 0.88050938
-0.22564451 0.17901467 0.88049966
-0.22571771 0.1838745 0.88078529
-0.21852289 0.18628205 0.88081682
-0.21601659 0.18619125 0.88038749
-0.22326693 0.1886341 0.88058847
-0.22092757 0.18868618 0.8808316
-0.21127799 0.191046 0.88064176
-0.21362731 0.19340016 0.88043082
-0.21123114 0.19580354 0.88044643
-0.21592419 0.19810545 0.8800109
-0.21358091 0.19815694 0.88023961
-0.21127415 0.20304474 0.88062572
-0.21375708 0.21272862 0.88096571
-0.20404573 0.21741855 0.88050884
-0.20894215 0.22232114 0.88091427
-0.18029375 0.1360023 0.88172793
-0.18027741 0.1456029 0.881648
-0.23788655 0.14796358 0.88139457
-0.18026285 0.14799418 0.88157684
-0.23800185 0.15284272 0.88182175
-0.23311046 0.15519051 0.88150418
-0.18502353 0.15997013 0.88136059
-0.18500528 0.16475877 0.88127363
-0.22831948 0.17442445 0.88156092
-0.2235615 0.18647946 0.88175029
-0.2210636 0.18639988 0.88137394
-0.21381769 0.19117045 0.88121545
-0.20905595 0.1912092 0.88139403
-0.2162115 0.19356513 0.88118184
-0.20919941 0.19614881 0.88199896
-0.20908903 0.19844821 0.8815335
-0.21632792 0.20087913 0.88165635
-0.21390495 0.20326364 0.88157511
-0.21157157 0.20573442 0.88186544
-0.21379216 0.20795999 0.88111025
-0.20904791 0.20801899 0.88136017
-0.21616815 0.21273817 0.88100523
-0.21150708 0.21288097 0.88159662
-0.20907968 0.21285622 0.8814941
-0.20916703 0.21775278 0.8818624
-0.20669217 0.21767795 0.88155937
-0.20192546 0.2177203 0.88173085
-0.20656572 0.22234784 0.88102007
-0.17803751 0.14092572 0.88245755
-0.1779491 0.14325997 0.88201934
-0.23831636 0.15063781 0.88298702
-0.18289782 0.15058818 0.88269615
-0.23574308 0.1577471 0.88236421
-0.23333783 0.16015226 0.88236403
-0.2333416 0.17218095 0.88237828
-0.23107518 0.17709777 0.88290858
-0.22863908 0.18429404 0.88279498
-0.22626957 0.18913756 0.88293874
-0.22379202 0.19148374 0.88265949
-0.21658798 0.19149604 0.88271624
-0.22376175 0.1938635 0.88254011
-0.21410874 0.19624132 0.88241494
-0.2214153 0.19872795 0.88277614
-0.21897861 0.1987004 0.88265371
-0.21416253 0.20110248 0.88263667
-0.21174471 0.20109119 0.88258708
-0.20696007 0.20111737 0.88270199
-0.21662392 0.20356052 0.88286269
-0.20701239 0.20357493 0.88292515
-0.20699629 0.20837215 0.88285649
-0.21416652 0.21073012 0.88265312
-0.21172364 0.21069339 0.88249928
-0.21889995 0.21305968 0.88233668
-0.20691878 0.21310535 0.88252586
-0.20458056 0.21558203 0.88281679
-0.20204799 0.21544749 0.88226587
-0.19973095 0.21554233 0.88265425
-0.21178839 0.22278927 0.88276917
-0.20439427 0.22259839 0.88201284
-0.23834518 0.14584167 0.88309383
-0.18302199 0.15309815 0.88329548
-0.23602612 0.15552844 0.88342363
-0.23609172 0.16279788 0.88366914
-0.2335344 0.169916 0.8831073
-0.22870901 0.17953622 0.88306499
-0.22170566 0.19176018 0.88393384
-0.21912359 0.19160925 0.88323808
-0.22631113 0.19398668 0.88310093
-0.22157131 0.19405198 0.88339818
-0.21918099 0.19406764 0.88346946
-0.21667074 0.19638334 0.88305354
-0.21923919 0.20134568 0.88370407
-0.22402918 0.20372935 0.88359487
-0.2216147 0.20372388 0.88357121
-0.21919341 0.20371197 0.88351953
-0.20951442 0.20366758 0.88332701
-0.21441531 0.20615739 0.8836785
-0.20959848 0.21097562 0.88368142
-0.21680233 0.2157708 0.8835898
-0.21449201 0.21586964 0.88399458
-0.22171679 0.21827522 0.88397819
-0.21914048 0.21810929 0.88330621
-0.21673481 0.21811138 0.88331467
-0.21427871 0.21806219 0.88311547
-0.21200316 0.21819773 0.88366437
-0.19986071 0.21808989 0.88322765
-0.20945865 0.22046353 0.88309187
-0.20710768 0.22052336 0.88333154
-0.20477501 0.22060433 0.88365585
-0.21913134 0.22291549 0.88326931
-0.21447551 0.22308137 0.88392657
-0.20965542 0.22548951 0.8839215
-0.18331024 0.13404715 0.88468659
-0.18084814 0.13400966 0.88443917
-0.17845887 0.13402586 0.8845461
-0.17610326 0.13406813 0.88482511
-0.17845044 0.13643053 0.88450426
-0.17597663 0.13879204 0.88418883
-0.17853031 0.14855208 0.88490015
-0.18095006 0.15097058 0.88493764
-0.18337446 0.15580535 0.88499653
-0.18327659 0.15813325 0.88452417
-0.23629001 0.16775614 0.88441133
-0.23138785 0.17492749 0.8841033
-0.22919802 0.18233234 0.88495308
-0.22898653 0.18939413 0.8841365
-0.22673696 0.19193998 0.88476259
-0.22428142 0.19913623 0.88458973
-0.22179966 0.20148341 0.88430858
-0.20976476 0.20632163 0.88438249
-0.2074068 0.20637409 0.88460737
-0.2170461 0.20877971 0.88458329
-0.21700105 0.2111471 0.88439971
-0.2073454 0.21113415 0.88434547
-0.22175385 0.21349174 0.88412595
-0.19768482 0.21593539 0.88426387
-0.21951918 0.21607429 0.88483262
-0.20749851 0.21611479 0.8849985
-0.19779105 0.21846309 0.88473904
-0.2217911 0.22316918 0.88427448
-0.2170243 0.2232247 0.88449448
-0.2025044 0.22316523 0.88425887
-0.20730008 0.22554836 0.88415217
-0.20500602 0.22567606 0.88465273
-0.1738257 0.13417181 0.88550937
-0.17870633 0.14628407 0.88577265
-0.23165789 0.18478256 0.88513505
-0.2268247 0.18718894 0.88510495
-0.22939005 0.1945564 0.8856945
-0.2244738 0.19689372 0.8853485
-0.22205535 0.19688916 0.88532799
-0.21977533 0.19700861 0.88586515
-0.224537 0.20177715 0.88559777
-0.20996891 0.20169635 0.88524318
-0.22696456 0.20420335 0.88565069
-0.21980722 0.21152766 0.88599366
-0.21255663 0.21635234 0.88597131
-0.2099597 0.21616507 0.88520437
-0.21236032 0.22097811 0.88515306
-0.21480699 0.22101296 0.88529271
-0.20279181 0.22106817 0.88551384
-0.22442554 0.2233922 0.88515818
-0.18610425 0.13432321 0.88650858
-0.17650528 0.14162637 0.88684499
-0.18118653 0.15358323 0.88609409
-0.23684022 0.16573039 0.88647074
-0.18364066 0.16811083 0.88628125
-0.23433809 0.17533174 0.88614649
-0.23440492 0.17779793 0.88639921
-0.23204768 0.1802599 0.8866244
-0.22968972 0.18755832 0.88685155
-0.22971751 0.19241643 0.88695884
-0.22711392 0.19709054 0.88623351
-0.22707307 0.19947039 0.88607413
-0.2248493 0.20689251 0.8868295
-0.22488168 0.20934001 0.88695723
-0.21985112 0.20915435 0.88617063
-0.22241324 0.2165437 0.88675493
-0.22466236 0.21879721 0.88609219
-0.222357 0.22132204 0.88653076
-0.21982068 0.22120151 0.8860479
-0.21753764 0.22133601 0.88658667
-0.20070966 0.22143404 0.88697934
-0.2005291 0.22365044 0.88618141
-0.19822903 0.22378084 0.88669813
-0.22002687 0.22624397 0.88687897
-0.21516038 0.22621085 0.88674915
-0.21258444 0.22604199 0.88608718
-0.20296583 0.22608958 0.88627374
-0.17654593 0.13682309 0.88704926
-0.17654389 0.14407529 0.88703901
-0.2370525 0.16104184 0.88726526
-0.18398206 0.1611623 0.8879289
-0.18387973 0.16349168 0.88743508
-0.23706667 0.17314491 0.88731831
-0.18380651 0.17309874 0.88708168
-0.2322313 0.18282124 0.887326
-0.22734974 0.20213166 0.88715374
-0.2176729 0.20696445 0.88713789
-0.22250202 0.2093758 0.88710892
-0.19596726 0.21670149 0.88740104
-0.22750637 0.21921025 0.88776493
-0.19603328 0.21919425 0.88770008
-0.22499092 0.22153607 0.88738805
-0.19836538 0.2215161 0.88730806
-0.18166628 0.15641163 0.88844031
-0.18164977 0.15881895 0.88835955
-0.23730458 0.17089756 0.88820881
-0.18417749 0.17102517 0.88887203
-0.23493344 0.18062043 0.88839775
-0.23256609 0.19035138 0.88860518
-0.23021019 0.20009778 0.88886112
-0.23011312 0.20485716 0.88848633
-0.22292013 0.20734657 0.88877589
-0.22038724 0.20724294 0.88833159
-0.22277069 0.21204965 0.88818008
-0.22766235 0.21451743 0.88837361
-0.22522277 0.21450025 0.88830251
-0.22769466 0.2242355 0.88849968
-0.19614241 0.22415842 0.8881942
-0.17463517 0.13237162 0.889633
-0.17709672 0.14937744 0.8898167
-0.179381 0.15168354 0.8891167
-0.1793769 0.15410359 0.88909638
-0.18435481 0.16633934 0.88972789
-0.18426439 0.17837808 0.88929147
-0.23291522 0.18821131 0.88993913
-0.23044282 0.19787465 0.88975936
-0.22790314 0.20747192 0.88931316
-0.22788551 0.20987982 0.88924438
-0.19407709 0.21729349 0.88982528
-0.19404408 0.21968164 0.88967395
-0.22798769 0.22209905 0.88964313
-0.19650939 0.2221522 0.88985604
-0.23047908 0.22458874 0.88989931
-0.19407961 0.22457297 0.88983685
-0.17232926 0.13488984 0.89024824
-0.17476448 0.13732323 0.89029175
-0.17471662 0.13971174 0.89004791
-0.18214844 0.16896763 0.89079833
-0.18456511 0.17624116 0.89074278
-0.23550038 0.18591127 0.89054167
-0.23307681 0.19562443 0.89055657
-0.23064497 0.20290318 0.89053988
-0.22574468 0.21257034 0.89036101
-0.22586426 0.21753947 0.8908326
-0.23067303 0.2199222 0.89064819
-0.17742194 0.1472218 0.8914507
-0.18228854 0.16423751 0.89148349
-0.23814799 0.17636439 0.89136559
-0.23810573 0.17876238 0.8912074
-0.23588462 0.18378316 0.89199466
-0.2284915 0.21286832 0.89160907
-0.22836241 0.21760605 0.89110529
-0.19201741 0.21770826 0.89152384
-0.19193371 0.22004247 0.89113528
-0.23100714 0.22267203 0.89193827
-0.17528199 0.14503179 0.89292806
-0.17772815 0.15477835 0.89298928
-0.1800424 0.15710786 0.89239502
-0.18001452 0.15951568 0.8922568
-0.1824773 0.16197501 0.89240658
-0.18244073 0.1741029 0.89222771
-0.23354325 0.19358355 0.89233875
-0.23358811 0.20091926 0.89251018
-0.23115253 0.20821531 0.89249963
-0.23120838 0.21069902 0.89271528
-0.23102432 0.21539421 0.89200461
-0.1898323 0.22042295 0.89267617
-0.19462654 0.22277345 0.89234447
-0.17537911 0.14267683 0.89342278
-0.17787419 0.15246938 0.89372307
-0.23634116 0.19144727 0.89372104
-0.23394941 0.19879341 0.89389062
-0.23393944 0.20609443 0.89385253
-0.1899368 0.21810967 0.89316761
-0.18286306 0.16719283 0.89429313
-0.1804314 0.16963622 0.89432311
-0.1828558 0.1720614 0.89425766
-0.1828213 0.17934038 0.89408898
-0.23661701 0.18923175 0.89476418
-0.23172957 0.21849062 0.89472759
-0.19271608 0.22337842 0.89476776
-0.1733357 0.13811846 0.89544743
-0.17578666 0.15033135 0.89549899
-0.18558043 0.18209344 0.89564288
-0.18550776 0.18446256 0.89529216
-0.18558165 0.19186023 0.89564878
-0.23671433 0.19662954 0.89513218
-0.23433533 0.2040026 0.89536524
-0.23193657 0.21380366 0.89552683
-0.23437592 0.21624316 0.89552033
-0.23432468 0.22107691 0.89532453
-0.1880037 0.22113422 0.89555663
-0.17353697 0.14072253 0.89648718
-0.17849356 0.16033417 0.89683503
-0.18085498 0.16514744 0.89642256
-0.18327619 0.17734338 0.89631355
-0.18823811 0.21896574 0.89667326
-0.19053929 0.22368623 0.89600074
-0.17610107 0.14815487 0.89710063
-0.17619306 0.15557216 0.89756924
-0.1786128 0.157995 0.89743412
-0.18104093 0.16287123 0.89734429
-0.18105757 0.17267117 0.89742678
-0.18599032 0.18738918 0.8976211
-0.23498435 0.20946236 0.89784503
-0.23476791 0.21171457 0.89701807
-0.23493715 0.21920784 0.89766467
-0.23493925 0.22410363 0.89767271
-0.17641613 0.1533194 0.89870566
-0.18117553 0.16788799 0.89801145
-0.18128231 0.17533478 0.89854074
-0.18375359 0.18515405 0.89864832
-0.18871036 0.21706475 0.8989228
-0.17893317 0.16563036 0.89904386
-0.17907363 0.17066552 0.89974958
-0.1838616 0.18281187 0.89917654
-0.1838652 0.19016863 0.89919418
-0.23532359 0.21466659 0.89914125
-0.18653457 0.20756897 0.90024775
-0.18902034 0.21496697 0.90039939
-0.17934014 0.16355084 0.90108865
-0.17945209 0.16856845 0.90165114
-0.18185285 0.18080056 0.90136862
-0.18440506 0.18826874 0.90183431
-0.18437023 0.19314878 0.90166402
-0.18435995 0.19559565 0.90161371
-0.1868047 0.21278453 0.90155143
-0.17712443 0.1588541 0.90231383
-0.17724869 0.16142683 0.90294689
-0.1821532 0.17863813 0.9028573
-0.18228985 0.18369792 0.90353465
-0.18223695 0.1861068 0.90327251
-0.18476346 0.20094982 0.9035871
-0.18728358 0.21086621 0.90386254
-0.18717656 0.21813285 0.90334606
-0.23886587 0.22303839 0.90326822
-0.17996335 0.17397821 0.90421993
-0.17997599 0.17645536 0.90428346
-0.18248065 0.19128661 0.9044804
-0.18496141 0.19869943 0.90455514
-0.18501204 0.20861922 0.9048028
-0.23914419 0.21836819 0.90432066
-0.18731387 0.22322124 0.90400875
-0.18514068 0.20382814 0.90543187
-0.1851806 0.2063407 0.90562713
-0.18755345 0.21610475 0.90516502
-0.18766822 0.22117467 0.90571892
-0.18039317 0.18180569 0.90637958
-0.18287495 0.18922913 0.90643471
-0.18289639 0.1941935 0.90654105
-0.18290406 0.19667283 0.90657908
-0.23966353 0.22131279 0.90628451
-0.18071204 0.18707708 0.90798175
-0.18561737 0.21425061 0.90776312
-0.1856354 0.21922076 0.90785134
-0.1807669 0.1846581 0.90825731
-0.18589565 0.2120937 0.90912408
-0.18597005 0.22209507 0.90948796
-0.18618608 0.21738905 0.9105444
-0.18399149 0.21027152 0.91196901
-0.18402812 0.22025889 0.91215056
-0.18470903 0.21608269 0.9155255
-0.18483113 0.21372831 0.91613072
-0.18490496 0.21881014 0.91649669
