# .PCD v0.7 - Point Cloud Data file format
VERSION 0.7
FIELDS x y z
SIZE 4 4 4
TYPE F F F
COUNT 1 1 1
WIDTH 1140
HEIGHT 1
VIEWPOINT 0 0 0 1 0 0 0
POINTS 1140
DATA ascii
-0.25225031 0.15176103 0.84888089
-0.25026163 0.14732467 0.84998554
-0.25486541 0.15657389 0.84988523
-0.25515217 0.16138856 0.85084146
-0.25727805 0.16358487 0.85020244
-0.2485279 0.14534882 0.8519848
-0.2530365 0.14759178 0.85152662
-0.24841782 0.14760579 0.85160744
-0.2529383 0.14985473 0.85119617
-0.25069985 0.14990361 0.85147387
-0.25522223 0.15215331 0.85107511
-0.25537005 0.16384763 0.85156804
-0.2577776 0.16854653 0.85185325
-0.24876955 0.1431655 0.85281318
-0.2462887 0.14539793 0.85227263
-0.25578445 0.15481348 0.85294992
-0.25328296 0.15470569 0.85235602
-0.25320119 0.15697838 0.85208082
-0.25570405 0.15941337 0.85268182
-0.25810212 0.16178392 0.85292572
-0.25795719 0.16634032 0.85244673
-0.25810915 0.17341332 0.8529489
-0.26041073 0.17804731 0.85287219
-0.25134116 0.14563325 0.853652
-0.25119445 0.15252492 0.85315371
-0.25635606 0.14816885 0.85485601
-0.24683116 0.14804643 0.85414976
-0.25621539 0.15041646 0.85438693
-0.25615245 0.16667798 0.85417712
-0.258459 0.17132023 0.85410506
-0.25862452 0.17841886 0.85465199
-0.26098922 0.18310276 0.85476685
-0.24484566 0.14592245 0.85534722
-0.25645906 0.16920862 0.85519952
-0.25875804 0.17618014 0.85509324
-0.26125005 0.18095344 0.85562104
-0.19856307 0.13450059 0.85684979
-0.24765277 0.14153114 0.8569929
-0.24505277 0.14137885 0.85607076
-0.25915661 0.157776 0.85641032
-0.26159996 0.16484796 0.85676706
-0.26157543 0.17417325 0.85668671
-0.26159066 0.17651872 0.8567366
-0.2639634 0.17887941 0.85685807
-0.26149324 0.18579081 0.85641754
-0.26158509 0.19052663 0.85671836
-0.2010901 0.13462873 0.85766608
-0.25234488 0.14387861 0.85706103
-0.25025851 0.15103804 0.85791755
-0.25940612 0.16026458 0.85723484
-0.25485227 0.16033979 0.85763711
-0.20352778 0.1346948 0.85808694
-0.19660789 0.13476136 0.85851103
-0.20373811 0.13951685 0.85897368
-0.24328098 0.14404495 0.8580519
-0.25496307 0.14637671 0.85800993
-0.25987062 0.15352896 0.85876983
-0.255155 0.16287081 0.85865581
-0.26199508 0.16977482 0.85806113
-0.25993019 0.18166102 0.85896671
-0.26439366 0.1838499 0.85825467
-0.2598725 0.18396159 0.85877603
-0.26458001 0.18866171 0.8588596
-0.25973943 0.18854676 0.85833633
-0.25964639 0.19315693 0.85802889
-0.19452648 0.13494086 0.85965455
-0.20155749 0.13962825 0.85965955
-0.26012847 0.1560245 0.859622
-0.25320497 0.15608989 0.85998225
-0.26242962 0.16771358 0.85948426
-0.25764856 0.17233537 0.85916603
-0.25789064 0.17484145 0.85997331
-0.26479334 0.18178482 0.85955209
-0.21340342 0.13502356 0.86018139
-0.21107595 0.13503459 0.86025167
-0.20873682 0.13503833 0.86027545
-0.20636885 0.13502328 0.8601796
-0.20417537 0.13746981 0.86081719
-0.20170811 0.13738753 0.86030191
-0.1993638 0.13738804 0.86030513
-0.19713108 0.13746639 0.86079568
-0.20875828 0.13974264 0.8603639
-0.20636633 0.13971101 0.86016911
-0.19950607 0.13983281 0.86091906
-0.25097257 0.14208812 0.86036545
-0.24383973 0.14203149 0.8600226
-0.26274258 0.16322236 0.86050922
-0.26272762 0.17259498 0.86046028
-0.26510265 0.18668866 0.86055624
-0.26038685 0.19136225 0.86047578
-0.26045451 0.19610423 0.86069942
-0.21128544 0.13986309 0.86110544
-0.20444559 0.14470042 0.86195648
-0.2653276 0.17510843 0.86128646
-0.26528859 0.17743006 0.8611598
-0.26057723 0.18680771 0.86110497
-0.26540425 0.19159786 0.86153525
-0.2584658 0.19872515 0.86189121
-0.25600395 0.1986379 0.86151278
-0.21625772 0.13534248 0.86221308
-0.19281089 0.13538159 0.86246228
-0.21172073 0.13779916 0.86287951
-0.20925672 0.13772549 0.86241817
-0.2068294 0.13767456 0.86209923
-0.19512112 0.13770381 0.8622824
-0.24699995 0.14015017 0.86287302
-0.21401112 0.14011085 0.86263084
-0.19745769 0.14004441 0.86222184
-0.20449488 0.1423852 0.86216432
-0.20221634 0.14243561 0.86246961
-0.25626424 0.14477299 0.86238873
-0.20212701 0.14472261 0.86208862
-0.19990757 0.14481713 0.86265165
-0.25394502 0.15889712 0.86249578
-0.25639579 0.16601478 0.86283141
-0.26579475 0.19423163 0.86280286
-0.25872469 0.19657248 0.86275452
-0.21895406 0.13555674 0.86357802
-0.21423493 0.13790353 0.86353302
-0.24940792 0.14018162 0.86306655
-0.21659335 0.14026034 0.8635512
-0.19545209 0.14029181 0.86374503
-0.20018265 0.14266171 0.86383867
-0.2118457 0.14494087 0.86338878
-0.20724626 0.14501609 0.86383682
-0.2023631 0.14959699 0.86309558
-0.20015956 0.14970851 0.86373907
-0.20248827 0.15439774 0.8636294
-0.25905558 0.17798598 0.86385798
-0.26368544 0.19676447 0.86359715
-0.19335712 0.13812274 0.86490566
-0.20748219 0.1428238 0.86482018
-0.24284524 0.14518274 0.86482954
-0.21457511 0.14519526 0.86490417
-0.20968536 0.14507449 0.86418474
-0.19799161 0.14513634 0.86455321
-0.20266092 0.14746101 0.86436576
-0.20032917 0.14747897 0.86447096
-0.20279685 0.15227532 0.86494553
-0.20511737 0.154605 0.86478877
-0.25932956 0.19467482 0.8647716
-0.25440452 0.19922438 0.86405641
-0.22181526 0.13586743 0.86555731
-0.19110224 0.13583815 0.86537075
-0.21710752 0.13823381 0.86560118
-0.21480064 0.1429878 0.86581326
-0.21234904 0.1429262 0.86544019
-0.20995161 0.14290008 0.86528206
-0.19815302 0.14289612 0.86525804
-0.24544103 0.14768359 0.86567044
-0.20530677 0.15002885 0.86558729
-0.20066673 0.1548086 0.86592758
-0.26187685 0.1995341 0.86539972
-0.22449876 0.13606389 0.86680883
-0.21976079 0.14078149 0.8667599
-0.19363001 0.14067858 0.8661263
-0.2432055 0.14303723 0.86611253
-0.21737865 0.14313132 0.86668217
-0.23631732 0.14551787 0.86682588
-0.21728316 0.14542983 0.86630148
-0.19610152 0.14548247 0.866615
-0.19837919 0.14778171 0.86624563
-0.24803509 0.1501852 0.86648923
-0.21256568 0.15015639 0.86632311
-0.21036255 0.15026951 0.86697567
-0.20788933 0.15019004 0.86651725
-0.19832814 0.15010433 0.86602271
-0.20552422 0.15254971 0.86650407
-0.20077364 0.15252945 0.86638898
-0.21266106 0.15494882 0.86671185
-0.2103563 0.15499136 0.86694986
-0.20785257 0.15488662 0.866364
-0.20088167 0.16442606 0.86685514
-0.26923862 0.18085398 0.86631656
-0.25971988 0.18080318 0.86607319
-0.26924297 0.18557985 0.8663305
-0.2574116 0.19736886 0.86624986
-0.25272632 0.19975954 0.86637747
-0.22714773 0.13623552 0.86790228
-0.21995758 0.13854279 0.86753601
-0.23173451 0.14087905 0.86736053
-0.22948571 0.14094999 0.86779726
-0.19623585 0.14321826 0.86720866
-0.238939 0.14567569 0.86776596
-0.23425902 0.14570728 0.86795419
-0.20567386 0.14793344 0.86713493
-0.21288766 0.14801881 0.86763537
-0.2056565 0.15737483 0.86706173
-0.20328023 0.15736492 0.86700714
-0.20571092 0.15978058 0.86729121
-0.20328605 0.15973282 0.86703199
-0.20332724 0.16449292 0.86720765
-0.26719525 0.17397676 0.86734909
-0.25068051 0.20001151 0.86747026
-0.22957435 0.13627166 0.86813247
-0.18942867 0.13633135 0.86851275
-0.19177915 0.13868651 0.86843598
-0.22719473 0.14099622 0.86808187
-0.24623869 0.1410615 0.86848378
-0.22249973 0.14101999 0.86822826
-0.19183791 0.14109695 0.86870205
-0.24138717 0.14572567 0.86806369
-0.22264127 0.14584601 0.86878055
-0.22012104 0.14574532 0.86818075
-0.21072504 0.14816113 0.8684696
-0.20826475 0.14809501 0.86808205
-0.19660687 0.14822572 0.86884826
-0.21551354 0.15056609 0.8686868
-0.19648288 0.15049911 0.86830032
-0.21320798 0.1529787 0.86894083
-0.2084025 0.15292861 0.86865622
-0.21558709 0.15535489 0.86898327
-0.19880679 0.15519927 0.8681128
-0.20604478 0.16477576 0.86869878
-0.20595428 0.16943718 0.86831725
-0.20355099 0.16940688 0.86816198
-0.20124681 0.16945934 0.86843079
-0.24869606 0.1979495 0.86879826
-0.2321858 0.13641563 0.86904967
-0.18731657 0.13651742 0.86969817
-0.22984603 0.13880211 0.86915982
-0.22743879 0.1387789 0.86901444
-0.22284815 0.13887046 0.86958784
-0.2347372 0.14126325 0.86972588
-0.22048211 0.14361398 0.86960483
-0.19440366 0.14361101 0.86958688
-0.22516933 0.14594965 0.86939794
-0.19445051 0.14601655 0.86979645
-0.21570127 0.14832728 0.86944348
-0.22286452 0.15073334 0.86965173
-0.21089487 0.15301897 0.86916953
-0.19910033 0.1530586 0.8693946
-0.19677006 0.15545969 0.86956942
-0.20849589 0.15773489 0.86904544
-0.21105377 0.16024727 0.86982441
-0.20850624 0.16011171 0.86908859
-0.20148414 0.1601792 0.86945492
-0.20155111 0.16260323 0.86974394
-0.20378685 0.16723396 0.86916792
-0.20143533 0.16724865 0.86924428
-0.20853592 0.16961184 0.86921233
-0.19906242 0.1696151 0.86922908
-0.24638648 0.19562784 0.86900502
-0.24427125 0.19583109 0.86990792
-0.24876104 0.20037004 0.86902529
-0.23484132 0.13658233 0.87011164
-0.18517104 0.13668361 0.87075686
-0.23249744 0.13897079 0.87021613
-0.22545575 0.13901675 0.87050384
-0.22538191 0.1413433 0.87021875
-0.18989508 0.14141352 0.87065119
-0.24209544 0.1437801 0.87061071
-0.22790654 0.14381163 0.87080163
-0.22307976 0.14376043 0.87049156
-0.23245806 0.14606225 0.87006873
-0.22791956 0.14619365 0.8708514
-0.22315082 0.14855339 0.8707689
-0.21841864 0.14856358 0.87082857
-0.22536306 0.150819 0.87014598
-0.22080812 0.15094808 0.87089068
-0.21835718 0.15089484 0.87058353
-0.21595426 0.15324673 0.87046325
-0.21839364 0.15566698 0.87072891
-0.21128291 0.15804768 0.87076879
-0.2017456 0.15801398 0.87058318
-0.21357852 0.16036272 0.87045103
-0.20406008 0.16271341 0.87033331
-0.19925822 0.16503853 0.87008405
-0.20641075 0.16744058 0.87024176
-0.19945243 0.16757341 0.8709321
-0.2421668 0.19129938 0.87086731
-0.25167993 0.1984349 0.8709287
-0.24668398 0.19823568 0.8700543
-0.25856358 0.20299579 0.87012655
-0.25625253 0.20304395 0.87033296
-0.19965856 0.13447593 0.87183219
-0.19001468 0.13912785 0.87119955
-0.23772585 0.14163138 0.87199247
-0.24002564 0.14396204 0.87171239
-0.2376035 0.14393418 0.87154365
-0.23284273 0.14392836 0.87150848
-0.23055576 0.14398372 0.87184364
-0.2258019 0.14398317 0.87184036
-0.19251974 0.1439748 0.87178963
-0.23049247 0.14632004 0.87160432
-0.19243468 0.1462865 0.87140447
-0.2255874 0.14859489 0.87101215
-0.2209844 0.14869277 0.87158591
-0.1949158 0.14874256 0.87187773
-0.19471988 0.15096726 0.87100136
-0.23513353 0.15100071 0.87119436
-0.23286474 0.15106943 0.87159085
-0.22809573 0.15105793 0.87152445
-0.19723615 0.15345199 0.87162918
-0.22337285 0.15582901 0.87163526
-0.22092633 0.15577924 0.8713569
-0.21632601 0.1582642 0.87196171
-0.21374264 0.15811141 0.87111992
-0.23532148 0.16062795 0.87189072
-0.21618667 0.16053756 0.87140006
-0.19947277 0.1604677 0.87102091
-0.20660105 0.16284628 0.87104404
-0.20907421 0.16529876 0.87145603
-0.21147606 0.17007089 0.87156481
-0.2019985 0.17484438 0.87167454
-0.19969603 0.17490883 0.87199581
-0.24948858 0.19620454 0.87156683
-0.25669321 0.19864018 0.87182963
-0.20210791 0.13452442 0.87214661
-0.19733427 0.1345115 0.8720628
-0.19510783 0.13461545 0.87273675
-0.18326457 0.13465324 0.87298173
-0.18319525 0.13698101 0.87265152
-0.18791185 0.14170766 0.87246203
-0.23541188 0.1440468 0.87222564
-0.23775019 0.14877735 0.8720817
-0.23536253 0.14877072 0.87204283
-0.23080069 0.15127379 0.87276983
-0.19269472 0.15124123 0.87258202
-0.21892352 0.15366544 0.87284154
-0.21886832 0.15838394 0.87262142
-0.19973852 0.15830405 0.8721813
-0.23322147 0.1608187 0.87292612
-0.21880054 0.16071278 0.87235123
-0.19990012 0.16319083 0.87288696
-0.23555343 0.16554423 0.8727501
-0.21164319 0.16545005 0.8722536
-0.1974289 0.16549318 0.87248099
-0.20941333 0.16794619 0.87286955
-0.19745418 0.17027146 0.87259269
-0.20692828 0.17261657 0.87242371
-0.20223118 0.17266701 0.87267864
-0.20689356 0.17496529 0.87227732
-0.20451726 0.17496648 0.87228322
-0.20229441 0.18461862 0.87295145
-0.2448606 0.19392663 0.87200677
-0.26162648 0.19402099 0.87243104
-0.2425855 0.19400808 0.87237298
-0.25452951 0.19880636 0.87255901
-0.23567486 0.1346869 0.8732
-0.23345645 0.13478032 0.87380558
-0.22870632 0.13478832 0.87385744
-0.19300339 0.13480718 0.87397975
-0.18565096 0.13465817 0.87301368
-0.23586838 0.13956182 0.87391704
-0.18811925 0.13948324 0.87342501
-0.19061096 0.14671105 0.87393343
-0.22848392 0.14893533 0.87300771
-0.23341861 0.14904729 0.87366396
-0.19062245 0.15148459 0.87398612
-0.22376652 0.15372352 0.87317145
-0.22152324 0.15381853 0.87371117
-0.23325153 0.15607989 0.87303859
-0.23090567 0.15610281 0.8731668
-0.22620954 0.15614706 0.87341428
-0.19525917 0.15614694 0.87341368
-0.19757567 0.16085619 0.87312961
-0.22158907 0.16101116 0.87397081
-0.2096394 0.16336374 0.87381184
-0.23343231 0.16572729 0.87371522
-0.21661644 0.16561674 0.87313235
-0.21424751 0.1656253 0.87317753
-0.21439192 0.17050043 0.87376606
-0.20947175 0.17275295 0.87311298
-0.20482014 0.17284438 0.87357503
-0.19993959 0.17274234 0.87305933
-0.20949319 0.17515086 0.87320238
-0.19766134 0.17521219 0.87350821
-0.20485711 0.18002053 0.87373269
-0.20489135 0.18481474 0.87387878
-0.20246962 0.1871601 0.87370753
-0.2619274 0.1918633 0.87343448
-0.24527824 0.1918764 0.87349409
-0.2547465 0.20373683 0.87330294
-0.23113401 0.13481498 0.87403029
-0.18829578 0.13484804 0.87424463
-0.23849636 0.1373212 0.87481874
-0.18605919 0.14210905 0.87493336
-0.19062723 0.14434117 0.87400806
-0.18842798 0.14686634 0.87485844
-0.24558204 0.14920288 0.87457597
-0.23137045 0.14926231 0.87492436
-0.19308603 0.149165 0.87435395
-0.23849666 0.15162911 0.87481982
-0.22645633 0.15393403 0.87436718
-0.19552979 0.15397927 0.87462419
-0.23595154 0.15629202 0.87422514
-0.22885208 0.15632585 0.87441438
-0.19301911 0.15626088 0.87405092
-0.19081797 0.15640955 0.87488252
-0.22165453 0.15867572 0.87422901
-0.19785444 0.15869978 0.87436157
-0.23124108 0.16109671 0.87443513
-0.2242226 0.16119176 0.87495112
-0.19560926 0.16119702 0.87497967
-0.23601322 0.16348374 0.87445366
-0.21684258 0.16340712 0.87404382
-0.21465905 0.16355874 0.8748548
-0.21221073 0.16350973 0.87459266
-0.23834987 0.16583468 0.87428141
-0.21940605 0.16592649 0.8747654
-0.19554104 0.16590925 0.8746745
-0.19799034 0.16834882 0.87496215
-0.23851268 0.17071751 0.87487859
-0.2169314 0.17062449 0.87440187
-0.21216398 0.17300759 0.87439996
-0.21212691 0.17536043 0.87424719
-0.20513327 0.17787836 0.87491059
-0.20274469 0.1778751 0.87489456
-0.20746283 0.18021517 0.87467736
-0.20256341 0.18009874 0.87411225
-0.20035024 0.18025126 0.87485248
-0.20733324 0.18486808 0.87413102
-0.20021912 0.18489957 0.87427992
-0.2050468 0.18733881 0.87454176
-0.24307142 0.18963128 0.87412047
-0.24796025 0.2016452 0.87455571
-0.2266628 0.1349899 0.87516439
-0.19085892 0.13497539 0.87507027
-0.23875983 0.13508566 0.87578517
-0.18140514 0.13504048 0.87549222
-0.18142188 0.13743959 0.87557298
-0.18621804 0.13984342 0.87568033
-0.24101739 0.14932881 0.87531412
-0.18863904 0.15180564 0.8758384
-0.23386824 0.15410651 0.8753469
-0.22909383 0.15410496 0.87533814
-0.1934378 0.15421213 0.87594688
-0.18855116 0.15650748 0.87543035
-0.23866999 0.1612847 0.87545562
-0.1934357 0.16137345 0.87593734
-0.23396367 0.16371751 0.87570405
-0.21964827 0.16372256 0.87573111
-0.22194226 0.16604 0.87536383
-0.21237028 0.16840424 0.87525016
-0.23634976 0.17087792 0.87570059
-0.21951072 0.17077686 0.87518269
-0.19580628 0.1709092 0.87586093
-0.21471359 0.17552689 0.87507707
-0.20770548 0.17803894 0.87570041
-0.20057246 0.17806382 0.87582284
-0.21013696 0.18046413 0.87588573
-0.24119158 0.1828644 0.87594676
-0.20538229 0.18286981 0.87597263
-0.2433878 0.18749228 0.87525821
-0.20755145 0.18744791 0.87505102
-0.20061217 0.18765038 0.87599623
-0.24335952 0.19701265 0.87515652
-0.24590935 0.1995315 0.8757416
-0.24139436 0.14239326 0.87668318
-0.18870214 0.14469182 0.8761313
-0.19109133 0.149469 0.87613589
-0.23660304 0.15433399 0.87663901
-0.23168187 0.15423945 0.87610197
-0.19121219 0.15434296 0.87669003
-0.23647751 0.15902872 0.87617391
-0.23412804 0.15905511 0.87631929
-0.23191543 0.15917598 0.87698519
-0.22450157 0.15900436 0.87603968
-0.22928204 0.16139553 0.87605721
-0.22693799 0.1614268 0.8762269
-0.2389904 0.16389078 0.8766309
-0.19828846 0.16382509 0.87627953
-0.23173723 0.16621971 0.8763113
-0.22935675 0.16622567 0.87634271
-0.22691263 0.16618513 0.87612897
-0.22453013 0.16618934 0.87615114
-0.23904417 0.16870785 0.87682813
-0.23667859 0.16872531 0.87691891
-0.21741205 0.16861378 0.87633926
-0.21497025 0.16857219 0.87612307
-0.22212061 0.17094947 0.87606728
-0.21512865 0.17347626 0.87676865
-0.19831733 0.17340474 0.87640715
-0.21993181 0.17588483 0.87686157
-0.21746014 0.17581894 0.87653309
-0.24131759 0.17818207 0.8764044
-0.19832832 0.18058157 0.87645566
-0.20783827 0.18292984 0.87626022
-0.20302811 0.18290007 0.87611759
-0.21024925 0.18533817 0.87635374
-0.19836596 0.1853949 0.87662202
-0.24132334 0.18774228 0.87642527
-0.21033362 0.1878023 0.87670541
-0.24134065 0.19253409 0.87648815
-0.2031928 0.1926088 0.87682825
-0.24845082 0.19487828 0.87628591
-0.25328794 0.19731356 0.87649322
-0.22479211 0.13529979 0.87717342
-0.18422028 0.14253151 0.87753433
-0.1865342 0.14725389 0.87716705
-0.18420443 0.14730287 0.87745881
-0.24414849 0.14978595 0.87799376
-0.18905769 0.14974985 0.87778211
-0.18658614 0.15207827 0.87741131
-0.22735743 0.15933229 0.87784642
-0.19606708 0.15918365 0.87702751
-0.19131084 0.16159545 0.87714231
-0.22240613 0.16399594 0.87719339
-0.19368076 0.16635929 0.87704712
-0.22251767 0.16886277 0.87763333
-0.22007622 0.16882505 0.87743729
-0.1962156 0.16887403 0.87769186
-0.24168752 0.1712774 0.87774789
-0.22500026 0.17132382 0.87798572
-0.19388352 0.17131983 0.87796527
-0.23935646 0.17371467 0.87797362
-0.21778606 0.17368957 0.87784678
-0.21535455 0.1784433 0.8776893
-0.21297148 0.17845115 0.87772793
-0.21043609 0.17833011 0.87713253
-0.19858404 0.17842224 0.87758577
-0.24166976 0.18083452 0.8776834
-0.21538752 0.18086343 0.87782371
-0.21289974 0.18078278 0.87743229
-0.24388568 0.18309444 0.87704867
-0.20084646 0.1830883 0.87701929
-0.24150847 0.19027714 0.87709761
-0.20580378 0.19042307 0.8777703
-0.2033255 0.19034292 0.87740082
-0.24893327 0.19286346 0.87798756
-0.20578711 0.19280012 0.8776992
-0.20105578 0.19285154 0.87793332
-0.20563017 0.19743437 0.87702984
-0.222617 0.13543116 0.87802511
-0.17971526 0.13556592 0.8788988
-0.17972235 0.13796711 0.87893355
-0.23947658 0.14028001 0.87841421
-0.18439427 0.14027184 0.87836313
-0.24654798 0.14260973 0.87801594
-0.18911056 0.15457845 0.87802756
-0.1867983 0.15704 0.87840897
-0.22990347 0.15943852 0.87843168
-0.1939127 0.15937784 0.87809736
-0.1915323 0.15938878 0.87815768
-0.18921664 0.15945457 0.87852013
-0.18912846 0.16177385 0.87811071
-0.23235562 0.16426823 0.87864977
-0.22522581 0.16430861 0.87886578
-0.19628872 0.1641503 0.87801898
-0.23476306 0.16906725 0.87869608
-0.22759518 0.16908039 0.87876439
-0.23476854 0.17146644 0.87871665
-0.22741874 0.17134282 0.87808311
-0.24184714 0.17378472 0.87832761
-0.22045615 0.17390826 0.87895209
-0.24184772 0.1761793 0.87832969
-0.22276475 0.17623509 0.87860781
-0.23946397 0.17858128 0.87836796
-0.21066438 0.18331058 0.87808406
-0.19870931 0.18332213 0.87813938
-0.24427055 0.18577784 0.87843269
-0.24175815 0.18568726 0.87800443
-0.21309781 0.18813287 0.87824857
-0.19889975 0.18828975 0.87898093
-0.2083988 0.19060816 0.87862349
-0.2035141 0.1977011 0.87821472
-0.20119524 0.19777483 0.87854224
-0.21065567 0.20245036 0.87804782
-0.17991872 0.13332094 0.87989384
-0.24456705 0.14285061 0.87949896
-0.18698217 0.14521076 0.87927359
-0.1869694 0.14999406 0.87921357
-0.18470779 0.15250209 0.87985653
-0.23967662 0.15717211 0.87914801
-0.23972514 0.15960084 0.87932599
-0.18699005 0.16199492 0.87931067
-0.23012756 0.16438751 0.87928784
-0.2277814 0.16442408 0.8794834
-0.19423245 0.16443565 0.87954533
-0.2252681 0.16913165 0.87903082
-0.19425292 0.16924848 0.87963802
-0.22310434 0.17410517 0.87994725
-0.22536427 0.17639522 0.87940609
-0.19661991 0.17641413 0.87950039
-0.2446609 0.17887983 0.87983644
-0.21830162 0.17889783 0.87992495
-0.22062929 0.18123814 0.87964237
-0.21818881 0.18120266 0.87947017
-0.19660899 0.18119884 0.87945157
-0.21349059 0.18368287 0.87986737
-0.19657287 0.18356234 0.87928998
-0.19656414 0.18595089 0.87925094
-0.2134909 0.18608153 0.87986869
-0.21589524 0.18848512 0.87989295
-0.24702729 0.19084665 0.87972283
-0.20142956 0.19081251 0.87956548
-0.19895034 0.19073421 0.87920451
-0.21101978 0.19321007 0.87956548
-0.2085811 0.19317198 0.87939209
-0.20622258 0.19560564 0.87955654
-0.2038465 0.19562623 0.8796491
-0.21098411 0.1979717 0.87941676
-0.2086402 0.19802223 0.87964123
-0.20621617 0.20039447 0.87952918
-0.21577841 0.202766 0.87941676
-0.21333447 0.20272154 0.87922394
-0.2086181 0.20279628 0.87954807
-0.20619433 0.20277044 0.87943602
-0.18488091 0.13344026 0.88068122
-0.18234366 0.13334033 0.88002169
-0.18240273 0.14058225 0.88030678
-0.18245853 0.14302556 0.88057613
-0.18483789 0.14540939 0.8804763
-0.18484977 0.15021913 0.88053286
-0.18720089 0.15497889 0.88030213
-0.18724628 0.15981676 0.88051558
-0.18481097 0.16218603 0.88034803
-0.24241062 0.16699034 0.88037401
-0.19194168 0.16692597 0.88003469
-0.23286815 0.16943124 0.88058788
-0.23041719 0.16939405 0.88039452
-0.23278351 0.17176914 0.88026786
-0.23031975 0.17172121 0.88002223
-0.23760855 0.17418773 0.88036454
-0.19677161 0.17415102 0.88017899
-0.23990935 0.17651469 0.88000166
-0.23777664 0.17671239 0.88098735
-0.19450003 0.17666619 0.88075697
-0.24477021 0.18135913 0.88022959
-0.22330178 0.18146139 0.88072592
-0.23998465 0.18376857 0.88027787
-0.21118085 0.19095816 0.8802368
-0.21370398 0.19346957 0.88074678
-0.19932431 0.19349383 0.88085723
-0.24244305 0.19581363 0.88049179
-0.20160025 0.19577338 0.88031077
-0.21612056 0.19828561 0.88081121
-0.21363254 0.19820485 0.88045239
-0.21374355 0.20070906 0.88090992
-0.21114166 0.20051847 0.88007349
-0.20879683 0.20057045 0.88030159
-0.20410295 0.20307472 0.88075572
-0.20171341 0.20308608 0.88080496
-0.21129091 0.20786212 0.88069558
-0.20644552 0.2078177 0.88050735
-0.20400874 0.20778038 0.88034922
-0.18256269 0.14791057 0.88107878
-0.24284056 0.15286241 0.88193542
-0.18267442 0.1528074 0.88161802
-0.24024527 0.15514292 0.88123381
-0.18502305 0.15756728 0.88135833
-0.24267063 0.16236478 0.88131827
-0.19222534 0.16477028 0.8813352
-0.18996421 0.16729704 0.88199097
-0.24259795 0.16952099 0.88105434
-0.19226177 0.17201 0.88150221
-0.22581881 0.17434904 0.88117981
-0.19467697 0.17442392 0.88155824
-0.2210066 0.17914623 0.88114673
-0.24026653 0.18158211 0.88131183
-0.22580419 0.18154316 0.88112277
-0.19465579 0.18161312 0.88146234
-0.22099349 0.18393904 0.88109446
-0.22355962 0.18407442 0.88174289
-0.21638532 0.18410519 0.8818903
-0.2187115 0.18644282 0.88157701
-0.21624623 0.18638919 0.88132346
-0.22117122 0.18889427 0.88180304
-0.21865085 0.1887935 0.88133258
-0.2139335 0.191274 0.88169277
-0.25243533 0.19611813 0.88186103
-0.2091229 0.19607706 0.88167632
-0.21629857 0.20085187 0.88153672
-0.20423211 0.20080091 0.88131309
-0.20192151 0.20089218 0.88171363
-0.21139248 0.20556027 0.88111895
-0.2067755 0.20574592 0.88191479
-0.20897289 0.20794432 0.88104385
-0.20185301 0.2080318 0.88141447
-0.20420381 0.21278302 0.88119102
-0.20436011 0.2225612 0.88186544
-0.20196387 0.22256956 0.88189858
-0.17807265 0.13373579 0.88263172
-0.17808931 0.13856058 0.88271433
-0.18293278 0.15061697 0.88286489
-0.19017774 0.16507824 0.88298243
-0.1924732 0.1697937 0.88247162
-0.19004264 0.17217644 0.88235515
-0.22851916 0.174577 0.88233191
-0.22861634 0.17705737 0.88270718
-0.22617579 0.17943616 0.88257277
-0.22375031 0.17942034 0.88249499
-0.19722348 0.17936042 0.88220024
-0.19254448 0.1818884 0.88279843
-0.21889384 0.18419322 0.882312
-0.2214189 0.18669948 0.88279057
-0.19497955 0.18672863 0.88292843
-0.24769147 0.18895535 0.88208812
-0.19728324 0.18903662 0.88246757
-0.19729304 0.19145159 0.88251138
-0.19495718 0.19152009 0.8828271
-0.21644178 0.19377129 0.88212037
-0.21181004 0.19634017 0.88285941
-0.21888107 0.19861189 0.88226056
-0.19960254 0.19857275 0.88208675
-0.22146744 0.2035885 0.88298404
-0.21888691 0.20342712 0.8822841
-0.19963069 0.20341031 0.88221121
-0.19726147 0.20344697 0.88237017
-0.21405257 0.20580861 0.88218349
-0.20923668 0.20580222 0.88215607
-0.20446801 0.20584305 0.88233107
-0.21656153 0.2083136 0.88260841
-0.21406917 0.20822945 0.88225192
-0.20453587 0.21072315 0.88262391
-0.21660657 0.21316962 0.882792
-0.21422328 0.21319258 0.88288707
-0.20693542 0.2131225 0.88259685
-0.20218311 0.21318506 0.88285595
-0.20446715 0.2178676 0.88232738
-0.20213044 0.21794131 0.88262594
-0.17829645 0.13631281 0.88374102
-0.18073229 0.1411517 0.88387263
-0.18068346 0.14352222 0.88363385
-0.18313608 0.1459659 0.88384604
-0.18072808 0.14837612 0.88385201
-0.18547815 0.15554649 0.88352615
-0.18541962 0.16031259 0.88324738
-0.24322897 0.16514622 0.88334608
-0.18792947 0.16521767 0.88372821
-0.18784213 0.16754867 0.88331753
-0.24564518 0.17237565 0.88337606
-0.24574189 0.17726129 0.88372386
-0.19278659 0.17729834 0.88390851
-0.19506337 0.17958564 0.88330799
-0.19018629 0.18193449 0.88302213
-0.18793809 0.18208833 0.8837688
-0.22635654 0.1843949 0.88327807
-0.22402003 0.18686195 0.88355881
-0.24098617 0.18935451 0.88395149
-0.22401433 0.18926556 0.88353628
-0.21669872 0.19159395 0.88316756
-0.21924573 0.19412497 0.88373041
-0.21432756 0.19644189 0.88331681
-0.19988166 0.19644266 0.88332027
-0.19756342 0.19894062 0.88372082
-0.21919617 0.20130618 0.88353068
-0.2166696 0.20601051 0.88304889
-0.20227766 0.2060618 0.88326877
-0.22162296 0.20854859 0.88360411
-0.21926852 0.20860009 0.88382226
-0.20715988 0.21094525 0.88355422
-0.21199219 0.21336924 0.88361865
-0.20958981 0.21337557 0.88364488
-0.20718136 0.21819316 0.88364583
-0.20704857 0.22286758 0.88307947
-0.18804103 0.13398142 0.88425285
-0.18088225 0.1533253 0.884606
-0.24348754 0.15809052 0.88428509
-0.24361913 0.16058768 0.884763
-0.19046719 0.17015055 0.88432634
-0.18814306 0.17264035 0.8847326
-0.24591799 0.1749777 0.88435715
-0.23144321 0.17496933 0.88431478
-0.23644006 0.17509955 0.88497299
-0.19047631 0.17739064 0.88436866
-0.23869744 0.17980745 0.884399
-0.22915024 0.17988259 0.88476855
-0.22914658 0.18229142 0.88475448
-0.24824947 0.18456134 0.88407534
-0.22915341 0.18470863 0.88478082
-0.19531178 0.18463598 0.88443291
-0.2410744 0.18701345 0.88427514
-0.19529746 0.18944374 0.88436806
-0.21940628 0.19185644 0.88437754
-0.19289553 0.19186305 0.884408
-0.19767375 0.19423127 0.88421434
-0.21950215 0.19676372 0.88476396
-0.21699822 0.19668016 0.88438821
-0.22178911 0.19906346 0.88426656
-0.20011477 0.20149295 0.88435042
-0.19777136 0.20156142 0.88465095
-0.19535725 0.20397002 0.88463873
-0.20005912 0.2086667 0.88410449
-0.21704577 0.21119063 0.88458198
-0.21460527 0.21116182 0.88446134
-0.2121367 0.21110442 0.88422096
-0.20975858 0.21113676 0.88435638
-0.20249227 0.21110083 0.88420588
-0.21939878 0.21354519 0.88434732
-0.20491636 0.21593589 0.88426584
-0.21469747 0.2160764 0.88484132
-0.21707745 0.21845619 0.88471109
-0.20024687 0.21851128 0.88493419
-0.20492394 0.22076479 0.88429856
-0.20251523 0.22076668 0.88430613
-0.20017156 0.22325169 0.88460141
-0.20740363 0.22566104 0.88459384
-0.20489876 0.22555797 0.88418984
-0.17619297 0.13413642 0.88527578
-0.18352453 0.15834719 0.88572079
-0.18338974 0.163056 0.88507026
-0.18582624 0.16548988 0.88518429
-0.18588015 0.16795146 0.88544112
-0.19315456 0.17522274 0.88559556
-0.23166022 0.17754614 0.88514394
-0.19308615 0.17998695 0.88528192
-0.24876183 0.18011262 0.88589996
-0.19073528 0.18004574 0.88557106
-0.24876697 0.18253121 0.88591826
-0.24868478 0.18729904 0.88562554
-0.22699893 0.18733272 0.8857848
-0.19309598 0.18723591 0.88532704
-0.22698288 0.1897338 0.88572216
-0.25110975 0.19213553 0.88566399
-0.22203767 0.19204734 0.88525754
-0.19082358 0.1922043 0.88598102
-0.22457899 0.19457154 0.88576341
-0.2219831 0.19441263 0.88503999
-0.19549045 0.19445699 0.88524193
-0.22444478 0.19928128 0.88523406
-0.1955127 0.19930573 0.88534266
-0.22207803 0.2017363 0.88541847
-0.22438958 0.20405708 0.88501632
-0.22198957 0.20648104 0.88506579
-0.2195752 0.20647931 0.8850584
-0.20034324 0.20654969 0.88536006
-0.21980351 0.21152408 0.8859787
-0.20037965 0.21382859 0.88552099
-0.21715035 0.21611716 0.88500822
-0.20761412 0.21623521 0.88549161
-0.20275541 0.21620183 0.88535494
-0.21968652 0.21865276 0.88550717
-0.21478914 0.21858165 0.88521916
-0.21244635 0.21865386 0.88551164
-0.21006143 0.21868388 0.88563323
-0.20754401 0.22098798 0.88519257
-0.21238057 0.2234122 0.88523746
-0.21005993 0.22351049 0.88562691
-0.2124777 0.2259285 0.88564229
-0.20993935 0.22579488 0.88511854
-0.20271353 0.22580855 0.88517207
-0.17649302 0.1391993 0.88678336
-0.17890178 0.14160983 0.8867414
-0.17885792 0.14399163 0.88652402
-0.18133157 0.1464543 0.88680345
-0.18119659 0.15117626 0.88614327
-0.18367964 0.15606464 0.88646936
-0.18845336 0.17050947 0.88619179
-0.23430558 0.17530741 0.88602352
-0.19093384 0.1754003 0.88649297
-0.19337671 0.18509135 0.88661414
-0.19095618 0.18750443 0.88659668
-0.22477031 0.19232078 0.88651794
-0.22233503 0.19713715 0.88644308
-0.19810502 0.19707051 0.88614345
-0.22722925 0.19960758 0.88668358
-0.19582589 0.20204216 0.88676089
-0.22474569 0.20921341 0.88642085
-0.20069395 0.21174642 0.88690996
-0.22230424 0.21402162 0.88632035
-0.2198983 0.21644746 0.88636076
-0.21264987 0.21644725 0.88635993
-0.21032195 0.21653801 0.88673162
-0.20052046 0.22122529 0.88614321
-0.22005549 0.2238556 0.88699436
-0.21763755 0.22385547 0.88699383
-0.21516195 0.22379534 0.88675559
-0.19823053 0.22378255 0.88670492
-0.21515994 0.22621039 0.8867473
-0.17665355 0.13690649 0.88758993
-0.18384624 0.16829902 0.88727337
-0.2469044 0.170839 0.88790441
-0.23700112 0.17793308 0.88707298
-0.18864009 0.17793246 0.88706988
-0.23236975 0.18051009 0.88785499
-0.18875402 0.1804594 0.88760567
-0.23229982 0.1852946 0.88758779
-0.2299273 0.19017224 0.88776886
-0.19358581 0.19013025 0.88757282
-0.241954 0.19253416 0.88750154
-0.22491536 0.19728102 0.88709003
-0.19598602 0.19736908 0.88748604
-0.19346903 0.19968724 0.8870374
-0.22494064 0.20213988 0.88718981
-0.22739093 0.20458695 0.88731444
-0.19352235 0.20457946 0.88728189
-0.2249537 0.20698856 0.88724124
-0.19836043 0.20699899 0.88728595
-0.19835268 0.2094094 0.88725126
-0.22271742 0.21199895 0.88796771
-0.19851474 0.21442145 0.88797617
-0.20088583 0.21678863 0.8877579
-0.2225683 0.21911351 0.88737315
-0.19830012 0.21902537 0.88701618
-0.21289748 0.22153707 0.88739204
-0.21047652 0.22153488 0.88738328
-0.22250655 0.22388907 0.88712698
-0.19595467 0.22394386 0.88734406
-0.18415038 0.16130975 0.88874125
-0.18416084 0.16616431 0.88879174
-0.18648349 0.17333941 0.88831508
-0.23501045 0.17825723 0.88868898
-0.23244935 0.18299291 0.88815916
-0.23986004 0.18310569 0.88870656
-0.18657608 0.18311591 0.88875616
-0.19130185 0.18542275 0.88820159
-0.23003407 0.18783951 0.88818109
-0.23011823 0.19517401 0.88850605
-0.22757363 0.19506885 0.88802737
-0.19373311 0.19511737 0.88824821
-0.23016629 0.20005962 0.8886916
-0.19145136 0.20010558 0.88889575
-0.19623668 0.20731047 0.88862109
-0.22539018 0.21465969 0.88896281
-0.19618653 0.21936558 0.888394
-0.21808504 0.22189294 0.88881755
-0.21568182 0.22191308 0.88889819
-0.19855893 0.22173224 0.88817382
-0.1770969 0.14452659 0.8898176
-0.17940918 0.14928338 0.88925636
-0.17947088 0.15418434 0.88956219
-0.18187834 0.15659422 0.88947743
-0.18187308 0.15901418 0.88945168
-0.18433695 0.17359827 0.88964164
-0.18910176 0.175944 0.88924086
-0.24982683 0.17845854 0.88969266
-0.18675213 0.1784389 0.88959473
-0.2400654 0.18568701 0.88946742
-0.18922506 0.18818626 0.88982069
-0.19167015 0.19063124 0.88991159
-0.22782947 0.19286481 0.88902569
-0.22784862 0.19772811 0.88910043
-0.19403464 0.19784604 0.88963068
-0.22788583 0.20260829 0.88924563
-0.19391772 0.20257388 0.88909465
-0.1916714 0.20518711 0.88991737
-0.22785999 0.2098563 0.88914478
-0.19640253 0.20990996 0.88937211
-0.19164027 0.21000455 0.88977289
-0.19653285 0.21490103 0.8899622
-0.22301453 0.21712914 0.88915229
-0.19888109 0.21724211 0.88961488
-0.2206004 0.22198613 0.88919079
-0.22320406 0.22216515 0.8899079
-0.1964108 0.22204076 0.8894096
-0.2255605 0.22452192 0.88963455
-0.17471896 0.13486131 0.89005989
-0.17728107 0.14224885 0.8907429
-0.179649 0.14705572 0.89044505
-0.18198891 0.16396755 0.89001811
-0.18689488 0.17129506 0.89027476
-0.23559067 0.18112573 0.89088309
-0.18926559 0.18580054 0.89001125
-0.23058547 0.19314346 0.89031011
-0.2427815 0.19562012 0.8905369
-0.19187632 0.19569303 0.89086884
-0.23066968 0.19806944 0.89063525
-0.22812216 0.20767131 0.89016783
-0.19421941 0.20774363 0.89047784
-0.19412644 0.21007034 0.8900516
-0.22590056 0.21271712 0.89097577
-0.19905345 0.21257629 0.89038587
-0.22831158 0.21512917 0.89090699
-0.22569217 0.21980014 0.89015388
-0.19427766 0.21994609 0.89074492
-0.19415045 0.22465494 0.89016163
-0.17984699 0.15207757 0.89142638
-0.18222153 0.16903543 0.89115578
-0.18468611 0.17149748 0.89132679
-0.18710998 0.17635128 0.89129937
-0.23818672 0.1812533 0.89151055
-0.18707499 0.18117648 0.89113271
-0.23565808 0.18603575 0.89113796
-0.23344734 0.18864129 0.8919723
-0.23326181 0.19092081 0.89126343
-0.18954223 0.19336084 0.89131218
-0.23334448 0.19584909 0.89157927
-0.18962011 0.19830142 0.89167833
-0.23327234 0.20064764 0.89130366
-0.18961003 0.20072134 0.89163101
-0.23089924 0.205557 0.89152163
-0.19203362 0.20800523 0.89159918
-0.19690143 0.21287361 0.89163125
-0.19454202 0.21538271 0.89195698
-0.22597791 0.21764894 0.89128089
-0.19677004 0.21758921 0.89103633
-0.22851273 0.22017992 0.89169192
-0.1919585 0.22492972 0.89125037
-0.17516631 0.14007133 0.89233875
-0.23602855 0.18389529 0.89253891
-0.23371384 0.19859324 0.89299053
-0.19212544 0.19837862 0.89202547
-0.23119578 0.20338772 0.89266658
-0.23110808 0.2106076 0.89232796
-0.18970965 0.21055366 0.89209944
-0.19215073 0.21299577 0.89214289
-0.19470784 0.21313289 0.89271724
-0.22876094 0.21798582 0.89266044
-0.19215555 0.22029682 0.8921653
-0.22622949 0.22275563 0.89227313
-0.19461353 0.22275856 0.89228487
-0.19233304 0.22293442 0.89298934
-0.2286472 0.22517358 0.89221662
-0.17529631 0.13774112 0.89300102
-0.17789505 0.14761437 0.89382786
-0.17792144 0.15007308 0.89396048
-0.18271089 0.16218236 0.89354897
-0.18272485 0.16706647 0.89361727
-0.18030261 0.16951513 0.89368474
-0.1851075 0.17675909 0.89336044
-0.18516868 0.17925347 0.89365572
-0.18749465 0.18888652 0.89313179
-0.19242643 0.20356007 0.89342296
-0.22889841 0.2132474 0.89319688
-0.23146172 0.215802 0.89369339
-0.19233797 0.21563753 0.89301229
-0.19493985 0.21825947 0.89378101
-0.18995742 0.22056825 0.89326459
-0.22909121 0.22317407 0.89394921
-0.19007492 0.22314109 0.89381713
-0.18039913 0.15741916 0.89416319
-0.18056518 0.16000363 0.89498621
-0.18284278 0.17448658 0.89419395
-0.18542925 0.1843845 0.89491326
-0.18771176 0.18666789 0.89416599
-0.19031082 0.19170548 0.89492637
-0.23398915 0.19395316 0.89404249
-0.19030698 0.19658037 0.89490831
-0.1878016 0.20138834 0.89459395
-0.1902094 0.20379394 0.89444947
-0.19017871 0.2061988 0.89430517
-0.23169972 0.20870818 0.89461231
-0.18788476 0.22099432 0.89499009
-0.1758154 0.14303178 0.89564538
-0.1756956 0.14537403 0.89503509
-0.23922159 0.18448147 0.89538395
-0.23914622 0.18686326 0.89510185
-0.23668899 0.19172904 0.89503634
-0.18799075 0.19426824 0.89549494
-0.23674519 0.19665517 0.89524889
-0.1879296 0.19908541 0.89520365
-0.23690756 0.201674 0.89586288
-0.23189832 0.21376841 0.89537919
-0.19034657 0.21370044 0.89509451
-0.19043279 0.21623823 0.89549994
-0.19286732 0.2186719 0.89546996
-0.23194228 0.22113229 0.89554888
-0.17839138 0.15535593 0.89632165
-0.18082531 0.16512035 0.89627552
-0.18325633 0.17243829 0.89621645
-0.18576154 0.18227115 0.89651698
-0.24185376 0.18951288 0.89609349
-0.23695149 0.18949924 0.896029
-0.23463133 0.20426027 0.89649618
-0.23461173 0.20668672 0.89642131
-0.19073036 0.20924172 0.89689928
-0.2347067 0.21165936 0.89678419
-0.23213163 0.21886972 0.89627999
-0.19073795 0.21902965 0.89693493
-0.1881061 0.22369714 0.89604443
-0.1786159 0.15310515 0.89744973
-0.18110499 0.16782261 0.89766181
-0.18357022 0.17762791 0.89775157
-0.18360607 0.1801102 0.89792687
-0.24232267 0.19232765 0.89783084
-0.23729293 0.19955611 0.89732015
-0.23496313 0.21678494 0.89776397
-0.23248516 0.22409672 0.897645
-0.18126506 0.17286904 0.8984552
-0.18118167 0.17523743 0.8980419
-0.1862648 0.18766572 0.89894575
-0.18612958 0.18997809 0.8982932
-0.1886704 0.1925208 0.89873248
-0.23751786 0.19484873 0.89817071
-0.18852676 0.20461389 0.89804822
-0.1885836 0.20712425 0.89831895
-0.1885844 0.21936856 0.89832282
-0.23528154 0.22197966 0.89898056
-0.17418264 0.13879333 0.89982271
-0.17652424 0.14851089 0.89925635
-0.17899157 0.15833007 0.89933729
-0.17896427 0.16075699 0.89920014
-0.1815075 0.16329096 0.89965683
-0.18886441 0.1976234 0.89965665
-0.23549211 0.20991497 0.8997851
-0.23543668 0.21476975 0.89957333
-0.17427132 0.14131802 0.90028083
-0.17677282 0.15117471 0.90052271
-0.1792731 0.16594501 0.90075183
-0.18668166 0.19545332 0.90095764
-0.23811175 0.2051535 0.90041649
-0.23811962 0.20761473 0.90044624
-0.23572977 0.2199474 0.90069318
-0.17938121 0.17095865 0.90129501
-0.18440716 0.18581261 0.90184462
-0.18918727 0.21270031 0.90119457
-0.18934464 0.21779434 0.90194422
-0.17970763 0.16880849 0.90293509
-0.18211049 0.18105671 0.90264565
-0.18444942 0.18339634 0.90205127
-0.18447876 0.19080321 0.90219474
-0.18707879 0.19340801 0.90287423
-0.18700269 0.20070961 0.90250695
-0.2411502 0.20319124 0.90260261
-0.18694785 0.20311011 0.9022423
-0.18704502 0.20813699 0.90271127
-0.18939911 0.21047921 0.90220368
-0.23865741 0.21300368 0.90247995
-0.17974271 0.16391797 0.90311134
-0.18222418 0.17870775 0.90320921
-0.18471515 0.1959725 0.90335083
-0.18728843 0.205944 0.90388602
-0.18966295 0.2156978 0.9034605
-0.18722557 0.22311603 0.90358263
-0.1825771 0.18645418 0.90495849
-0.18493775 0.1888126 0.90443945
-0.23923944 0.21845517 0.90468085
-0.18274425 0.18415584 0.90578693
-0.18505432 0.19386542 0.90500951
-0.18752131 0.19879933 0.90500993
-0.18763232 0.21372727 0.90554571
-0.18756573 0.21858639 0.90522426
-0.18539201 0.20163342 0.90666097
-0.18781494 0.21146449 0.90642703
-0.23960015 0.21631481 0.9060449
-0.18813716 0.21677731 0.90798211
-0.18796839 0.22152844 0.90716761
-0.18336512 0.18973634 0.90886432
-0.18333769 0.192185 0.90872836
-0.18572019 0.19951457 0.90826595
-0.18571383 0.20941055 0.90823483
-0.24025087 0.22185516 0.90850556
-0.18339287 0.19719842 0.90900183
-0.18595627 0.20472607 0.90942055
-0.1860172 0.20727289 0.90971851
-0.18624829 0.21497887 0.91084868
-0.18387288 0.19523029 0.91138107
-0.18628068 0.21998277 0.91100705
-0.1840793 0.20042361 0.91240424
-0.18408787 0.20292011 0.91244668
-0.1865792 0.21287358 0.91246694
-0.18690525 0.21822876 0.91406155
-0.1846548 0.21102957 0.91525674
-0.18489203 0.20880264 0.91643256
-0.18499075 0.21641228 0.91692191
-0.18495442 0.22136755 0.91674179
-0.18523811 0.21419892 0.91814792
-0.18565294 0.21969527 0.9202041
