# .PCD v0.7 - Point Cloud Data file format
VERSION 0.7
FIELDS x y z
SIZE 4 4 4
TYPE F F F
COUNT 1 1 1
WIDTH 1173
HEIGHT 1
VIEWPOINT 0 0 0 1 0 0 0
POINTS 1173
DATA ascii
-0.23809923 0.16615693 0.83977592
-0.23568693 0.1660701 0.83933711
-0.23367751 0.15023386 0.84033859
-0.23359799 0.15476243 0.8400526
-0.23592874 0.15936975 0.84019828
-0.23836198 0.18009001 0.84070265
-0.23830324 0.18462774 0.84049547
-0.23634677 0.15506352 0.84168696
-0.23397547 0.15959962 0.8414101
-0.23622468 0.1641559 0.84125221
-0.24099578 0.18034607 0.84189796
-0.24091288 0.1894604 0.84160841
-0.23847899 0.18934938 0.8411153
-0.23200744 0.14604323 0.8425923
-0.23651767 0.15058373 0.84229559
-0.2342875 0.15292265 0.84253222
-0.23886754 0.15521067 0.84248573
-0.23884694 0.15978986 0.84241307
-0.23878558 0.1643402 0.84219664
-0.23652227 0.16895472 0.84231198
-0.23893659 0.16903841 0.84272927
-0.23873015 0.17118752 0.84200114
-0.23656066 0.17127852 0.84244871
-0.24118643 0.17589535 0.84256399
-0.23884332 0.17586118 0.84240031
-0.23885413 0.18275818 0.8424384
-0.24110252 0.18501773 0.84227085
-0.23895234 0.18742792 0.84278482
-0.23468532 0.14858128 0.84396279
-0.23914357 0.15079176 0.84345925
-0.23212042 0.15071012 0.84300262
-0.23684926 0.15769239 0.84347647
-0.23468868 0.15778556 0.84397489
-0.23688458 0.16231495 0.84360224
-0.24133317 0.16681001 0.84307665
-0.24367562 0.17603441 0.84323013
-0.23914139 0.17837976 0.84345162
-0.24387598 0.18077995 0.84392345
-0.24152766 0.18764393 0.84375608
-0.24386986 0.18997678 0.84390229
-0.2392298 0.19224548 0.84376341
-0.23909006 0.19443181 0.84327054
-0.23470148 0.14629085 0.84402096
-0.23723613 0.14873821 0.84485418
-0.23255612 0.1486908 0.84458494
-0.23709443 0.1532525 0.84434956
-0.24165225 0.15552489 0.84419131
-0.24171153 0.17167491 0.84439838
-0.2371197 0.17628689 0.84443957
-0.24164206 0.17852868 0.84415573
-0.23700574 0.18080357 0.84403372
-0.24175872 0.18321915 0.84456325
-0.24168971 0.1923728 0.8443222
-0.24163826 0.19463284 0.84414244
-0.237506 0.14660186 0.8458153
-0.23063561 0.14663129 0.84598505
-0.24203868 0.15116398 0.8455413
-0.23960283 0.15338491 0.84507912
-0.23962955 0.15800963 0.84517336
-0.24201244 0.16036583 0.84544963
-0.23958382 0.16258621 0.84501207
-0.24204057 0.16499414 0.84554791
-0.23507437 0.16495784 0.84536189
-0.24215515 0.16968408 0.84594816
-0.24445128 0.17198311 0.8459143
-0.23967263 0.17416759 0.84532529
-0.2374306 0.17421322 0.84554678
-0.24422145 0.17873238 0.84511894
-0.23752934 0.1835088 0.84589839
-0.24421157 0.18563585 0.84508479
-0.23733182 0.18566006 0.845195
-0.2443933 0.18807928 0.84571368
-0.24245307 0.15373154 0.84698892
-0.24242401 0.15833008 0.84688741
-0.23549885 0.16294722 0.84688836
-0.24471478 0.16755188 0.84682614
-0.24232866 0.1744208 0.84655428
-0.23761921 0.17896491 0.84621841
-0.24028911 0.14920394 0.84749961
-0.23344231 0.15387937 0.84780335
-0.24477339 0.15604767 0.84702891
-0.2333512 0.15612939 0.84747249
-0.24499652 0.17467767 0.84780103
-0.24729715 0.17698126 0.84776562
-0.24484092 0.18380475 0.84726262
-0.24721867 0.18616565 0.84749657
-0.24716881 0.19074744 0.84732562
-0.24491948 0.1931047 0.84753448
-0.24490346 0.19540216 0.84747905
-0.23798722 0.19541368 0.84752899
-0.24037497 0.19778769 0.8478024
-0.23361169 0.14474042 0.84841853
-0.2314478 0.14483351 0.84896421
-0.24517743 0.16093062 0.84842712
-0.24279438 0.16319598 0.84818125
-0.24746574 0.1817268 0.84834355
-0.24748644 0.18867993 0.84841454
-0.23814711 0.1909214 0.8480984
-0.23830397 0.19798708 0.84865707
-0.24083799 0.14722933 0.84943551
-0.24547777 0.15881224 0.84946638
-0.24546351 0.16574913 0.84941703
-0.23616189 0.16803597 0.84927279
-0.24546297 0.1703795 0.84941518
-0.24790673 0.17973407 0.8498553
-0.23844585 0.18884622 0.84916228
-0.2386592 0.19364871 0.84992212
-0.24312234 0.19814336 0.84932697
-0.23857489 0.20052809 0.84962183
-0.24351831 0.14976917 0.85071021
-0.24583934 0.1520894 0.8507176
-0.2458761 0.1544314 0.8508448
-0.24588066 0.1637115 0.8508606
-0.24803713 0.17287524 0.85030234
-0.24816099 0.18455631 0.85072696
-0.23667382 0.14520022 0.85111374
-0.23671563 0.17075038 0.85126412
-0.23670541 0.17306331 0.85122734
-0.24840529 0.17545308 0.85156447
-0.24849755 0.19409496 0.85188073
-0.23010637 0.14544836 0.85256821
-0.23228134 0.15000007 0.85202169
-0.23481072 0.16175497 0.85277313
-0.24874367 0.19661158 0.85272443
-0.24180436 0.20128855 0.85284388
-0.23695777 0.20112121 0.85213488
-0.24441411 0.14799269 0.85383964
-0.23028275 0.14788559 0.85322171
-0.23266236 0.15257239 0.8534193
-0.23501576 0.15956967 0.85351777
-0.24895467 0.16886203 0.85344779
-0.23740645 0.17823023 0.85374838
-0.246629 0.19910529 0.85345018
-0.23744135 0.19920413 0.85387391
-0.24002777 0.1458284 0.85479587
-0.24915889 0.1573592 0.85414791
-0.249263 0.17140041 0.85450482
-0.2374818 0.17595889 0.8540194
-0.23760507 0.18303759 0.85446262
-0.25165617 0.1877528 0.8547219
-0.25151616 0.19230542 0.85424638
-0.23773614 0.19712104 0.85493398
-0.23327999 0.14364757 0.85568476
-0.24958421 0.15996006 0.85560596
-0.24950248 0.16223915 0.85532576
-0.23798119 0.18099453 0.85581523
-0.25180683 0.19019642 0.85523361
-0.24489097 0.20191675 0.85550553
-0.23128533 0.14385767 0.8569364
-0.24989833 0.16716692 0.85668278
-0.2522707 0.17886919 0.85680914
-0.23829795 0.18590727 0.8569544
-0.2357029 0.2020366 0.8560133
-0.23612033 0.14395721 0.85752928
-0.2502647 0.16507339 0.85793877
-0.25243568 0.18366027 0.85736948
-0.23858462 0.18846965 0.85798526
-0.20362191 0.13475709 0.85848379
-0.20134033 0.13479626 0.85873336
-0.19900525 0.13480011 0.85875785
-0.22966528 0.14430745 0.85961562
-0.2296911 0.14666712 0.85971224
-0.23895974 0.19345079 0.85933429
-0.23908994 0.19589987 0.85980248
-0.20651925 0.13512169 0.86080647
-0.20634623 0.13969739 0.86008531
-0.23467337 0.15623753 0.86079574
-0.23705514 0.20084894 0.86092424
-0.21142399 0.13525726 0.86167014
-0.2042729 0.13988306 0.86122841
-0.20670307 0.14463599 0.86157268
-0.21628819 0.13536155 0.86233455
-0.21401127 0.13540815 0.86263144
-0.20921111 0.13534516 0.86223018
-0.19745967 0.13534521 0.86223048
-0.20690419 0.13772434 0.86241096
-0.20446798 0.13766684 0.86205089
-0.20924418 0.14006791 0.86236644
-0.20226669 0.14011954 0.86268437
-0.22817609 0.14484957 0.86284494
-0.23522396 0.15895601 0.86281538
-0.23976581 0.19175303 0.86223298
-0.24230616 0.20601647 0.86290979
-0.21883184 0.13548107 0.863096
-0.20954691 0.13791648 0.86361414
-0.20235455 0.13782784 0.8630591
-0.20021532 0.13797486 0.8639797
-0.2166304 0.14028431 0.8636989
-0.21193168 0.14029087 0.86373919
-0.20010774 0.14025453 0.86351544
-0.20708692 0.14255172 0.86317265
-0.23998289 0.1448779 0.86301363
-0.20471033 0.1448878 0.86307269
-0.23067251 0.14964724 0.86338556
-0.2330025 0.15198539 0.86329865
-0.23780629 0.19913119 0.86365223
-0.23314343 0.19917007 0.86382085
-0.23534094 0.20374331 0.86324447
-0.24002984 0.20608157 0.86318249
-0.22148906 0.13566762 0.86428446
-0.19570322 0.13575716 0.86485487
-0.21690683 0.13810603 0.86480105
-0.21209423 0.13804226 0.8644017
-0.21452464 0.14044704 0.86470073
-0.19801018 0.14043626 0.86463434
-0.20983484 0.14517792 0.86480081
-0.23339754 0.19467273 0.86476231
-0.23089972 0.19455425 0.864236
-0.23087744 0.19924656 0.86415261
-0.23574415 0.20173527 0.86472344
-0.22650187 0.13584815 0.86543453
-0.22417 0.13586462 0.86553943
-0.21472311 0.13821776 0.86550075
-0.22186263 0.14061619 0.86574215
-0.21947598 0.14059904 0.86563659
-0.2099821 0.14292084 0.86540771
-0.20518604 0.14286643 0.86507827
-0.22648415 0.14527294 0.86536688
-0.21241298 0.145329 0.86570078
-0.20293149 0.1452986 0.86551976
-0.19826292 0.14533523 0.86573792
-0.22880931 0.14761007 0.86523944
-0.20532359 0.1476815 0.86565822
-0.20770264 0.15005517 0.86573905
-0.20530103 0.15002467 0.86556309
-0.20304136 0.15481947 0.86598837
-0.23821414 0.17117414 0.86513346
-0.22893763 0.19488938 0.86572468
-0.23132727 0.19727463 0.86583626
-0.23601292 0.19960549 0.8657093
-0.23839566 0.20670475 0.86579269
-0.22904474 0.13595727 0.8661297
-0.1936468 0.13596854 0.8662014
-0.22216283 0.1384434 0.86691362
-0.21961583 0.13832754 0.86618817
-0.19847675 0.13840476 0.86667168
-0.19614419 0.1407886 0.86680359
-0.21271543 0.14317282 0.86693347
-0.20320351 0.14313094 0.86667997
-0.2173281 0.14545992 0.86648065
-0.21501501 0.14549294 0.86667734
-0.20075741 0.14543277 0.86631894
-0.20785445 0.14780326 0.86637187
-0.20321304 0.15022528 0.86672056
-0.20558755 0.1549594 0.86677104
-0.20304462 0.15954311 0.86600226
-0.22927085 0.18572 0.86698472
-0.23397411 0.19751668 0.8668986
-0.23373987 0.20204026 0.86603069
-0.19153675 0.13614701 0.86733836
-0.21759531 0.14327396 0.86754596
-0.21524905 0.1432863 0.86762065
-0.1986762 0.1432734 0.86754256
-0.22467919 0.14563195 0.86750549
-0.22236167 0.14566284 0.86768949
-0.22000532 0.1456687 0.86772436
-0.19633079 0.14565255 0.86762816
-0.21048242 0.15035513 0.86746967
-0.2106085 0.15517719 0.8679893
-0.20815668 0.15511324 0.86763155
-0.20332035 0.15739599 0.86717832
-0.20572099 0.1597884 0.86733365
-0.22949815 0.18117291 0.86784428
-0.23189916 0.19066444 0.86797678
-0.22933756 0.19050194 0.86723703
-0.23189025 0.193023 0.86794347
-0.23658721 0.19536014 0.86781585
-0.23197417 0.1362913 0.86825758
-0.18943347 0.13633481 0.86853474
-0.22739582 0.13875267 0.86885023
-0.22500394 0.13873816 0.86875939
-0.1965674 0.13872449 0.8686738
-0.22482251 0.14099248 0.86805886
-0.22728658 0.14105321 0.86843282
-0.19423519 0.14111826 0.8688333
-0.2226419 0.14347826 0.868783
-0.20124216 0.14341678 0.86841077
-0.21084252 0.14824373 0.86895376
-0.20369785 0.14821552 0.86878836
-0.22964269 0.1505148 0.86839086
-0.21320038 0.15060475 0.8689099
-0.20115113 0.15045016 0.86801791
-0.20599687 0.15290053 0.86849678
-0.2013085 0.15530372 0.86869699
-0.2061045 0.15771766 0.86895055
-0.20122817 0.15997571 0.86835039
-0.22500475 0.16005163 0.86876249
-0.22267444 0.16007881 0.86891001
-0.22720602 0.17413241 0.86812502
-0.22732668 0.18132778 0.86858606
-0.22969839 0.18369865 0.8686015
-0.22740813 0.18376121 0.86889726
-0.22718744 0.18594906 0.86805403
-0.22974776 0.18847449 0.86878818
-0.23429823 0.19069138 0.86809945
-0.23452629 0.1932456 0.86894447
-0.22962877 0.19311078 0.86833823
-0.22978137 0.19797617 0.86891532
-0.23450258 0.20506789 0.86885661
-0.2300297 0.13891302 0.86985433
-0.23479672 0.1436704 0.86994642
-0.2322863 0.14358442 0.86942583
-0.22991858 0.1435858 0.86943418
-0.2274404 0.14351749 0.86902058
-0.22522913 0.14361794 0.86962885
-0.22039968 0.14356029 0.86927974
-0.19439374 0.14597394 0.86954254
-0.22749195 0.14828873 0.86921751
-0.21337615 0.14835845 0.86962622
-0.22768568 0.15078637 0.86995775
-0.22531672 0.15078798 0.86996704
-0.19913185 0.15071262 0.86953223
-0.20376123 0.15299946 0.86905873
-0.2085591 0.15304352 0.86930895
-0.23473664 0.15548728 0.8697238
-0.2015865 0.15788938 0.86989665
-0.22040297 0.16014932 0.86929274
-0.208544 0.16014071 0.86924601
-0.20632491 0.16262862 0.86987978
-0.20375465 0.16246986 0.86903059
-0.2015135 0.16257289 0.86958164
-0.22766528 0.16499978 0.86987978
-0.2251738 0.16491166 0.86941522
-0.20620196 0.16490147 0.86936146
-0.20375744 0.16484097 0.86904252
-0.22753637 0.16964597 0.86938721
-0.2251526 0.16963544 0.86933333
-0.22526158 0.17445919 0.86975414
-0.2395374 0.17686762 0.86993921
-0.23004544 0.17686248 0.86991388
-0.22748867 0.18856491 0.869205
-0.22747144 0.19091977 0.86913919
-0.23954095 0.19584104 0.86995208
-0.23947726 0.19815969 0.86972082
-0.23694009 0.19802058 0.86911023
-0.19453551 0.1389645 0.87017667
-0.23017132 0.14137109 0.87038988
-0.19692415 0.1437206 0.8702504
-0.22548358 0.1485265 0.87061131
-0.22320852 0.1485918 0.87099403
-0.21835694 0.1485216 0.87058258
-0.21600808 0.14853825 0.87068015
-0.2016421 0.14844552 0.87013656
-0.19929527 0.14846416 0.87024581
-0.22314465 0.15092279 0.87074482
-0.19705008 0.15093355 0.87080687
-0.21120195 0.15324178 0.87043512
-0.22543456 0.15561211 0.87042201
-0.22307912 0.15562409 0.87048906
-0.2206738 0.15560119 0.87036091
-0.21350785 0.1555658 0.87016296
-0.19935428 0.15562667 0.87050349
-0.22064501 0.15795304 0.87024736
-0.2088068 0.1579701 0.87034136
-0.22310367 0.1580143 0.87058491
-0.22786976 0.1604014 0.87066108
-0.21123104 0.16038187 0.87055498
-0.19940209 0.16041084 0.87071228
-0.23736086 0.16277331 0.87065369
-0.22552259 0.16279355 0.87076193
-0.23734248 0.16513377 0.87058622
-0.22307201 0.1651101 0.87046134
-0.20877351 0.16506103 0.87020266
-0.20164625 0.16505189 0.8701545
-0.22308689 0.1698669 0.87051946
-0.20410663 0.16986932 0.87053186
-0.23956254 0.17451462 0.87003052
-0.22779819 0.1769588 0.87038767
-0.23020442 0.17935759 0.87051505
-0.22782782 0.17935465 0.87050086
-0.23982263 0.1818265 0.87097508
-0.23244824 0.18637276 0.87003195
-0.23266475 0.18892013 0.87084234
-0.23009121 0.20061484 0.87008697
-0.2326431 0.20314386 0.87076128
-0.23048633 0.13443719 0.87158108
-0.19004866 0.13440238 0.87135535
-0.18777424 0.13685098 0.87182313
-0.19251217 0.1392166 0.87175536
-0.23276769 0.14150716 0.87122762
-0.19480661 0.14390869 0.87138933
-0.22090851 0.14864172 0.87128663
-0.19713266 0.14862213 0.87117183
-0.22088157 0.15099828 0.87118036
-0.21850383 0.15099619 0.87116826
-0.21610789 0.15098132 0.87108248
-0.20188771 0.15337582 0.87119645
-0.22805126 0.15577883 0.87135458
-0.21615204 0.155762 0.87126046
-0.22564159 0.15812983 0.87122142
-0.21141103 0.15814352 0.87129682
-0.21856605 0.16054054 0.87141627
-0.21616264 0.1605197 0.87130314
-0.21382526 0.16054797 0.87145662
-0.19723769 0.16058101 0.87163597
-0.2234018 0.16297795 0.87174827
-0.20918311 0.16300817 0.87190992
-0.23041087 0.16526836 0.87129575
-0.22567795 0.16765608 0.87136179
-0.20673738 0.16770554 0.87161887
-0.2043336 0.16768265 0.8714999
-0.2329371 0.17012882 0.8718617
-0.23050962 0.17009126 0.87166917
-0.20909429 0.17006598 0.87153971
-0.20667911 0.17003348 0.87137312
-0.20194301 0.17004557 0.87143505
-0.22813466 0.17246808 0.87167323
-0.22569761 0.17242147 0.87143767
-0.23036829 0.17473611 0.8711347
-0.20442036 0.17488357 0.87186992
-0.20195159 0.17480379 0.87147212
-0.19953352 0.17476648 0.87128615
-0.23278643 0.18189387 0.87129778
-0.24004607 0.18674861 0.87178653
-0.23514156 0.18662812 0.87122411
-0.23760417 0.19144849 0.87154615
-0.22815576 0.1938704 0.87175387
-0.22806942 0.19617239 0.87142396
-0.23312271 0.13458765 0.87255645
-0.22845508 0.13464025 0.87289751
-0.20228507 0.13464235 0.87291116
-0.19276093 0.13463783 0.87288183
-0.23546624 0.13694578 0.87242705
-0.23300801 0.13927598 0.87212712
-0.19028313 0.13932441 0.87243038
-0.19259262 0.14165205 0.87211967
-0.19037548 0.14177127 0.87285376
-0.23796396 0.14415254 0.87286586
-0.19507399 0.14886329 0.87258536
-0.19495425 0.15114897 0.87204975
-0.19278094 0.15130889 0.87297243
-0.22370562 0.15368168 0.8729338
-0.21410142 0.15361977 0.87258214
-0.19987263 0.1536523 0.87276691
-0.21875091 0.15592162 0.87215334
-0.19748326 0.15602314 0.8727212
-0.21887475 0.1583886 0.87264711
-0.21641855 0.15833189 0.87233466
-0.214191 0.15844306 0.87294722
-0.19985543 0.15839671 0.87269181
-0.23085827 0.16083002 0.87298757
-0.22846106 0.16319707 0.87292033
-0.22129577 0.16555634 0.872814
-0.21171938 0.16550961 0.87256759
-0.22838436 0.16789958 0.87262732
-0.20921983 0.16779099 0.87206298
-0.20218757 0.16787323 0.87249041
-0.19970116 0.17015937 0.87201822
-0.23299788 0.17492756 0.87208921
-0.22351967 0.17495143 0.87220818
-0.23297836 0.17728989 0.87201613
-0.22601865 0.1774243 0.87267727
-0.24014339 0.17969237 0.87213999
-0.20457333 0.17977116 0.87252235
-0.20207465 0.17966418 0.87200314
-0.22608876 0.18223836 0.87294793
-0.23302588 0.18445843 0.87219399
-0.23557757 0.18935341 0.87283957
-0.23789625 0.19406246 0.87261748
-0.20473357 0.1346878 0.87320578
-0.20012212 0.13478814 0.87385637
-0.19532816 0.13476746 0.87372226
-0.18811694 0.13471995 0.87341428
-0.2358156 0.14191222 0.87372148
-0.19279994 0.14656416 0.87305844
-0.22615297 0.15372781 0.87319589
-0.22144766 0.15376607 0.87341309
-0.22850341 0.15846756 0.87308216
-0.22134525 0.16321367 0.87300915
-0.23326118 0.1656058 0.87307471
-0.20010856 0.16574283 0.87379712
-0.22373104 0.16797763 0.87303299
-0.21202371 0.17051131 0.87382185
-0.23105168 0.17287286 0.87371898
-0.22396187 0.17291534 0.87393373
-0.20470133 0.17274411 0.87306827
-0.2024359 0.17284179 0.87356198
-0.20013767 0.17291348 0.87392431
-0.20242275 0.17759265 0.87350529
-0.20003444 0.17996712 0.87347347
-0.23343408 0.18001831 0.8737219
-0.20723203 0.18001468 0.87370431
-0.20491782 0.18483861 0.87399161
-0.22616906 0.18706381 0.87325799
-0.24043396 0.19181076 0.87319529
-0.22625098 0.19189401 0.87357426
-0.23611788 0.13494009 0.87484145
-0.20743948 0.1348996 0.87457895
-0.19797614 0.13494903 0.87489939
-0.18592188 0.13723785 0.87428766
-0.18831015 0.14200802 0.87431133
-0.19322416 0.1445016 0.87497944
-0.19310826 0.14918217 0.87445462
-0.23362894 0.15394883 0.87445122
-0.22889926 0.15397409 0.87459469
-0.21935716 0.15396981 0.87457043
-0.21690479 0.15392125 0.87429458
-0.23121078 0.15630908 0.87432057
-0.19551551 0.15635195 0.87456036
-0.19781993 0.15867209 0.87420905
-0.19558598 0.16117784 0.87487555
-0.23129602 0.16351911 0.87464291
-0.21208453 0.16341248 0.87407255
-0.20027764 0.16349903 0.87453544
-0.21456322 0.16586936 0.87446421
-0.19797179 0.16594826 0.87488014
-0.23121141 0.16822582 0.87432295
-0.21228595 0.16833737 0.87490267
-0.20020993 0.16820984 0.8742398
-0.22170407 0.17062889 0.8744244
-0.23372898 0.17309181 0.87482566
-0.20990133 0.17310724 0.87490356
-0.20739494 0.17300585 0.87439114
-0.2097955 0.17540361 0.87446249
-0.20730455 0.17531286 0.87401009
-0.19796021 0.17547712 0.87482899
-0.20493124 0.17770316 0.87404889
-0.20021175 0.17774358 0.87424773
-0.20992066 0.18027838 0.87498415
-0.23589246 0.18245929 0.87400627
-0.24067321 0.18485396 0.87406421
-0.22640248 0.18487404 0.87415922
-0.20260067 0.18489812 0.87427306
-0.23848322 0.18738781 0.87477052
-0.22653209 0.18974824 0.87465966
-0.22674592 0.1350394 0.8754853
-0.18617563 0.13503872 0.87548089
-0.23634653 0.13984473 0.87568861
-0.18852687 0.13978547 0.87531751
-0.19088618 0.14453724 0.87519532
-0.19084875 0.14689408 0.87502372
-0.19100314 0.15178713 0.87573159
-0.19804215 0.15407908 0.87519109
-0.23404182 0.15660872 0.87599659
-0.21964657 0.16372129 0.87572432
-0.21727227 0.16373092 0.87577581
-0.21478619 0.16365559 0.87537295
-0.19820547 0.16375653 0.87591285
-0.21956223 0.16604459 0.87538803
-0.2172803 0.16612428 0.87580818
-0.23385516 0.16841342 0.8752979
-0.23877184 0.17090301 0.87582922
-0.23624155 0.17079969 0.87529969
-0.20757888 0.17793041 0.87516665
-0.22662167 0.18028279 0.87500554
-0.20527984 0.18277858 0.87553567
-0.20286952 0.1827572 0.87543321
-0.23629107 0.18515405 0.87548316
-0.21008837 0.18519635 0.87568319
-0.20769356 0.18518937 0.87565017
-0.20047228 0.18513337 0.8753854
-0.20766391 0.18754946 0.87552512
-0.24101458 0.18988803 0.87530398
-0.23879692 0.19002193 0.87592119
-0.24104275 0.19468266 0.87540627
-0.23894764 0.13758105 0.87647408
-0.18632279 0.14231038 0.8761729
-0.23167954 0.1542379 0.87609321
-0.19589041 0.15426326 0.87623727
-0.19366828 0.15439588 0.87699056
-0.19119978 0.15672252 0.87663311
-0.23169358 0.1590237 0.87614626
-0.23409356 0.16142005 0.87619025
-0.19605182 0.16634262 0.87695926
-0.23905878 0.16871816 0.87688172
-0.22215258 0.1685857 0.87619334
-0.21499673 0.17098142 0.87623101
-0.21989432 0.17107528 0.87671208
-0.21748589 0.17106061 0.87663686
-0.1984013 0.1710882 0.87677824
-0.22231996 0.17588322 0.87685353
-0.21277454 0.17589581 0.87691629
-0.2365393 0.17818175 0.87640285
-0.21024516 0.17816831 0.87633675
-0.19842479 0.18066941 0.87688202
-0.20799257 0.18306565 0.87691081
-0.20081039 0.18305542 0.87686175
-0.20557688 0.1878231 0.87680256
-0.2294703 0.19976729 0.87677652
-0.2247484 0.13527349 0.87700289
-0.18425228 0.1377714 0.87768674
-0.24148622 0.14483806 0.87701684
-0.18897282 0.14489937 0.87738806
-0.18899801 0.14731063 0.87750506
-0.1913186 0.14964677 0.87717789
-0.19136561 0.15446682 0.87739348
-0.19368225 0.15679774 0.87705386
-0.23679616 0.15924302 0.87735456
-0.19619851 0.15929037 0.87761545
-0.19377533 0.1616568 0.87747532
-0.23442805 0.16404246 0.87744218
-0.23680757 0.16642562 0.87739682
-0.21540909 0.1689163 0.87791157
-0.22259951 0.17371121 0.87795609
-0.21286017 0.1735753 0.87726921
-0.23677851 0.1759706 0.87728918
-0.22006956 0.17599499 0.87741077
-0.21762332 0.17595087 0.87719083
-0.21524917 0.17596471 0.87725985
-0.22483407 0.17837171 0.87733722
-0.23694399 0.18087962 0.87790227
-0.22494352 0.18085119 0.87776428
-0.21284965 0.18074024 0.87722582
-0.21054643 0.18320797 0.8775925
-0.21043897 0.18789636 0.87714452
-0.20340115 0.1880212 0.87772727
-0.20583576 0.1928457 0.87790674
-0.22720584 0.19509515 0.8772611
-0.23939909 0.13544734 0.87813002
-0.22269633 0.13547942 0.87833798
-0.18447518 0.13554274 0.87874854
-0.18678552 0.14026958 0.87834889
-0.23937759 0.14261545 0.8780511
-0.18690845 0.14515351 0.87892693
-0.1892321 0.15707269 0.87859184
-0.23701504 0.16178395 0.87816554
-0.19638088 0.16422735 0.8784312
-0.23722015 0.16911139 0.8789255
-0.1988961 0.16911896 0.87896484
-0.21799198 0.17385381 0.87867683
-0.21549423 0.17377105 0.87825859
-0.19871022 0.17853563 0.87814343
-0.21562834 0.18106565 0.87880516
-0.20360421 0.19299877 0.87860358
-0.20124492 0.19303297 0.87875921
-0.22750472 0.1977462 0.87841505
-0.205974 0.1977645 0.87849635
-0.18220863 0.13563861 0.87937003
-0.1823201 0.13812007 0.87990803
-0.18463027 0.14284872 0.87948728
-0.18693841 0.14757298 0.87906778
-0.18936731 0.1523917 0.87921965
-0.23489121 0.15957357 0.87917578
-0.19426489 0.16686101 0.8796922
-0.22048058 0.16913524 0.87904948
-0.21808161 0.16913305 0.8790381
-0.19659784 0.17160012 0.87940168
-0.23724489 0.17392115 0.87901717
-0.22053598 0.17397125 0.87927037
-0.21592063 0.17891236 0.87999642
-0.21331088 0.17873554 0.87912673
-0.21824367 0.18124823 0.87969136
-0.23982498 0.18364631 0.8796922
-0.21328987 0.18351018 0.87904012
-0.19901265 0.18599932 0.87947994
-0.23987581 0.18608363 0.87987864
-0.20145181 0.18843578 0.87966263
-0.20870127 0.19088481 0.87989873
-0.21103767 0.19322646 0.87964004
-0.20854801 0.19314133 0.87925255
-0.20854129 0.19792835 0.87922424
-0.20371126 0.19789264 0.87906551
-0.20383972 0.20281282 0.87961984
-0.24244234 0.13821131 0.88048923
-0.24005735 0.14062022 0.88054454
-0.18484762 0.14781721 0.88052267
-0.18965909 0.15022621 0.88057435
-0.18959926 0.15497792 0.88029659
-0.19439706 0.15977594 0.88029075
-0.19443473 0.1646069 0.88046134
-0.19445054 0.17182086 0.88053292
-0.19924027 0.17421174 0.88048583
-0.19679649 0.17657258 0.88029027
-0.21848541 0.17904845 0.88066578
-0.22574054 0.1838931 0.88087434
-0.21603945 0.1838109 0.88048065
-0.19931889 0.18388452 0.88083327
-0.21356495 0.18614607 0.8801738
-0.2135653 0.1885456 0.88017529
-0.20637761 0.19095401 0.88021773
-0.21133362 0.19109629 0.88087356
-0.19928569 0.19105572 0.88068652
-0.19931169 0.19348156 0.88080144
-0.20894839 0.19591345 0.88094062
-0.20634039 0.19571738 0.880059
-0.21115232 0.19812953 0.88011789
-0.20167117 0.19824268 0.88062048
-0.23031828 0.2029043 0.88001657
-0.20637041 0.20294361 0.88018709
-0.2064199 0.21259157 0.88039815
-0.18029089 0.13359673 0.88171399
-0.18497762 0.14071561 0.8811419
-0.18498641 0.14552623 0.88118374
-0.18741046 0.15755464 0.88128763
-0.19228095 0.1600118 0.88159019
-0.19222212 0.16236518 0.88132048
-0.23785029 0.16475625 0.88126022
-0.19700764 0.16955571 0.88123477
-0.24036604 0.17444739 0.88167685
-0.19467415 0.17682435 0.88154548
-0.22356676 0.17927316 0.88177103
-0.22111374 0.17923307 0.88157386
-0.22360255 0.1817058 0.88191217
-0.22107673 0.1816057 0.88142627
-0.19715387 0.181701 0.88188887
-0.20422576 0.19118571 0.88128573
-0.20193879 0.19129491 0.88178909
-0.19715579 0.19131841 0.88189745
-0.21633932 0.19367957 0.88170284
-0.21378748 0.19354516 0.88109094
-0.19713067 0.19369763 0.88178504
-0.21138792 0.19594887 0.88109994
-0.20436922 0.19612786 0.88190478
-0.20915693 0.20091636 0.88181978
-0.20668006 0.20084527 0.88150775
-0.20431434 0.20088176 0.88166791
-0.20902611 0.20319289 0.88126826
-0.233051 0.20559768 0.88127935
-0.20659679 0.20796998 0.88115257
-0.20427904 0.2128614 0.88151562
-0.18275605 0.13364188 0.88201195
-0.17811956 0.13377102 0.88286424
-0.18038565 0.13607162 0.88217735
-0.19006106 0.16016617 0.88244069
-0.19725434 0.17457826 0.88233829
-0.19496773 0.17468444 0.88287491
-0.24048752 0.17934459 0.8821224
-0.21884638 0.18415329 0.88212073
-0.2165585 0.18665834 0.88259608
-0.21664329 0.18913819 0.88294166
-0.21422337 0.19153318 0.88288742
-0.22614309 0.19384265 0.88244522
-0.21404 0.19617832 0.88213164
-0.21403728 0.19858035 0.88212049
-0.19964227 0.19861229 0.88226235
-0.21179044 0.20354092 0.88277769
-0.20201379 0.20338848 0.88211656
-0.19972435 0.20350572 0.88262504
-0.207002 0.20597129 0.88288081
-0.21180342 0.20836632 0.88283181
-0.20934503 0.20831463 0.88261282
-0.20444681 0.20822655 0.88223958
-0.20681272 0.21059175 0.88207358
-0.20939 0.21317214 0.88280243
-0.20689847 0.21789522 0.88243926
-0.2045026 0.21790536 0.88248032
-0.18782513 0.1338276 0.8832376
-0.18551184 0.13389564 0.88368666
-0.18056805 0.13861632 0.88306946
-0.18309043 0.14111227 0.88362575
-0.18314306 0.14356215 0.88387978
-0.18794994 0.15078068 0.88382447
-0.18791547 0.15316175 0.8836624
-0.19028641 0.16276433 0.88348699
-0.19266713 0.16755687 0.88336074
-0.19500108 0.16990033 0.88302588
-0.19262144 0.1723318 0.88315129
-0.19266851 0.17718974 0.88336712
-0.19758916 0.17969298 0.88383597
-0.19512802 0.18205371 0.88360077
-0.22647935 0.18690394 0.88375735
-0.19746791 0.18680586 0.88329357
-0.22631948 0.18917927 0.88313347
-0.19989288 0.18922991 0.88336986
-0.21685173 0.19172923 0.88379115
-0.21925201 0.19413051 0.88375568
-0.21669687 0.19640702 0.88316005
-0.20226513 0.19641903 0.88321406
-0.21680672 0.19891517 0.88360775
-0.21195985 0.2012955 0.88348383
-0.20244242 0.20141041 0.8839882
-0.20955664 0.20611691 0.88350499
-0.20463932 0.2060155 0.88307029
-0.20243424 0.20863083 0.8839525
-0.20469703 0.21088918 0.88331938
-0.20712605 0.21572687 0.88340992
-0.20957166 0.21817401 0.88356835
-0.20475189 0.22298788 0.88355613
-0.20721383 0.22304548 0.88378435
-0.1905856 0.13407585 0.88487607
-0.18331298 0.1461069 0.88469982
-0.18324579 0.14846401 0.88437551
-0.18573792 0.1509409 0.8847636
-0.1881671 0.15577878 0.88484561
-0.19055662 0.16781877 0.88474154
-0.19047144 0.17256492 0.88434607
-0.19297995 0.17506434 0.88479501
-0.19542237 0.17991614 0.88493365
-0.22431788 0.18469875 0.88473356
-0.22188364 0.18467994 0.88464344
-0.19784856 0.1847536 0.88499629
-0.21935824 0.18699415 0.88418388
-0.19542611 0.18715629 0.88495058
-0.21944639 0.18948041 0.88453925
-0.22658242 0.19180915 0.88415951
-0.19530255 0.19185938 0.88439107
-0.2195048 0.19917786 0.88477468
-0.19769928 0.19907743 0.88432854
-0.22919118 0.20162424 0.88492668
-0.21700521 0.20391883 0.8844167
-0.2146562 0.20397753 0.88467127
-0.21227469 0.20641813 0.88479614
-0.21705011 0.20878357 0.88459969
-0.20012724 0.20873776 0.88440555
-0.20970982 0.21108769 0.88415086
-0.21220264 0.21358104 0.88449579
-0.2049475 0.21596868 0.88440019
-0.20982924 0.21603075 0.88465434
-0.20246105 0.22311746 0.88406956
-0.17870302 0.13662365 0.88575625
-0.1858539 0.15344836 0.88531601
-0.18585274 0.15827385 0.88531053
-0.18836035 0.16076761 0.88575441
-0.19304915 0.16547643 0.88511229
-0.18828587 0.16794446 0.88540417
-0.1932238 0.17045584 0.88591307
-0.19078039 0.17767382 0.88578045
-0.21972238 0.19213285 0.88565165
-0.22219372 0.19459708 0.8858797
-0.21959041 0.19684285 0.88511974
-0.20044808 0.19699933 0.88582337
-0.22703522 0.19702224 0.88592643
-0.22697517 0.19938439 0.88569212
-0.19555393 0.19934776 0.8855294
-0.21489327 0.20178865 0.88564825
-0.20030008 0.20167953 0.88516933
-0.20286161 0.20665668 0.88581866
-0.21483713 0.20897646 0.88541692
-0.21242908 0.21139538 0.88543963
-0.20268582 0.21371512 0.88505107
-0.21240593 0.21861227 0.88534319
-0.20269923 0.21855459 0.8851096
-0.207499 0.22094004 0.88500059
-0.20516334 0.22102268 0.88533163
-0.21245392 0.22348936 0.88554317
-0.20991814 0.22335963 0.88502914
-0.20289961 0.22601582 0.8859846
-0.18130861 0.1416018 0.88669109
-0.18852469 0.16332443 0.88652724
-0.18609877 0.16814899 0.88648248
-0.19087633 0.17051604 0.88622594
-0.19345963 0.1803351 0.8869943
-0.1932428 0.18254809 0.88600022
-0.19336613 0.18749785 0.88656563
-0.22225186 0.18981722 0.88611156
-0.19819337 0.18990871 0.88653868
-0.22481662 0.19477741 0.88670063
-0.19808781 0.19705339 0.8860665
-0.22240366 0.19961505 0.88671672
-0.21756214 0.2020252 0.8866865
-0.21995449 0.20441929 0.88658726
-0.19815004 0.20436341 0.88634485
-0.19574812 0.20437813 0.88640875
-0.21746501 0.20676678 0.88629061
-0.21515301 0.20686667 0.88671875
-0.20049642 0.20670761 0.88603699
-0.1982682 0.2093202 0.88687336
-0.20294407 0.21157184 0.88617873
-0.22245236 0.21416423 0.88691092
-0.2151639 0.21412866 0.88676363
-0.21272689 0.21652564 0.88668096
-0.21276315 0.22139728 0.88683212
-0.21019255 0.22123599 0.88618606
-0.20307775 0.22137989 0.88676244
-0.21755946 0.22377513 0.88667554
-0.20070511 0.22384675 0.88695925
-0.21033442 0.22621979 0.8867842
-0.20776278 0.22605179 0.88612562
-0.20544161 0.22615556 0.88653243
-0.17901905 0.13928396 0.88732266
-0.18157567 0.14907199 0.88799721
-0.18395367 0.15145752 0.88779187
-0.18637905 0.15630199 0.88781756
-0.18640895 0.16358839 0.88796002
-0.19106591 0.16584918 0.88710612
-0.19113909 0.17558885 0.88744593
-0.19110307 0.1828115 0.88727868
-0.22514565 0.18780085 0.88799834
-0.22253582 0.18764125 0.88724363
-0.22497995 0.1900814 0.88734484
-0.19607097 0.19019406 0.88787073
-0.22253798 0.19248009 0.88725227
-0.19593094 0.19489516 0.88723665
-0.22270954 0.1974692 0.88793623
-0.22492711 0.19970952 0.8871364
-0.19843577 0.20223857 0.88762295
-0.2297515 0.20453523 0.88709009
-0.22748271 0.20466954 0.8876726
-0.22250552 0.20454279 0.88712287
-0.22249348 0.20936777 0.88707489
-0.22019839 0.20948471 0.88757038
-0.21780267 0.2119271 0.88766676
-0.21544388 0.21198697 0.88791752
-0.2008338 0.21189396 0.88752794
-0.22490993 0.21420231 0.88706863
-0.21770895 0.21425451 0.88728482
-0.20088175 0.21436439 0.8877399
-0.20334072 0.21682596 0.88791078
-0.22265993 0.21920373 0.88773847
-0.21541458 0.21921813 0.88779682
-0.22010291 0.22390385 0.88718551
-0.21526326 0.22390074 0.88717318
-0.21290398 0.22638176 0.8874191
-0.17675239 0.1345623 0.88808656
-0.18166009 0.14429796 0.88840997
-0.18413432 0.15402861 0.88866371
-0.18885553 0.17087336 0.88808298
-0.18897991 0.17340825 0.88866788
-0.18897989 0.17825297 0.88866776
-0.18894584 0.18306471 0.88850766
-0.19615287 0.18543108 0.88824153
-0.19143349 0.1879731 0.88881278
-0.22528541 0.19760561 0.88854957
-0.19610174 0.19748561 0.88801003
-0.19386543 0.20009638 0.88885486
-0.2203669 0.20238134 0.88824958
-0.19610287 0.20232794 0.88801515
-0.22537097 0.20494956 0.88888705
-0.23501883 0.20975621 0.88872069
-0.19628209 0.20978124 0.88882673
-0.22761466 0.21447247 0.88818747
-0.22039078 0.21451072 0.88834584
-0.22521524 0.21933566 0.88827282
-0.2204961 0.21945854 0.8887704
-0.21793805 0.21932226 0.88821852
-0.20095855 0.21928787 0.88807929
-0.22280297 0.22418733 0.88830876
-0.22038466 0.22661188 0.88832116
-0.21794574 0.22659369 0.88824987
-0.20101611 0.22661506 0.88833362
-0.18178095 0.14681724 0.88900107
-0.18664646 0.1613733 0.88909143
-0.18909471 0.16624208 0.88920766
-0.18669346 0.17111047 0.88931531
-0.18666136 0.17350475 0.88916242
-0.19147474 0.18074375 0.88900429
-0.19407578 0.18576047 0.88981932
-0.22546931 0.19291887 0.8892749
-0.19394869 0.19291055 0.88923657
-0.2279769 0.20268926 0.88960099
-0.22306946 0.20263691 0.88937128
-0.23284085 0.20755167 0.88965499
-0.22316505 0.2075744 0.88975239
-0.22065957 0.20749901 0.88942927
-0.19882078 0.20747939 0.88934517
-0.22785848 0.20985493 0.88913894
-0.22551554 0.20993005 0.88945723
-0.19896485 0.21248166 0.88998955
-0.19882552 0.21475714 0.88936633
-0.19647558 0.21483842 0.88970292
-0.22798875 0.21725 0.88964725
-0.22552669 0.21721435 0.88950121
-0.2231645 0.21727514 0.88975018
-0.21831627 0.21727753 0.88975996
-0.21570984 0.21709529 0.88901365
-0.22784606 0.21953756 0.88909042
-0.2182436 0.22205427 0.88946378
-0.21584226 0.22207814 0.88955939
-0.19892097 0.22456199 0.88979328
-0.18212567 0.15195142 0.89068699
-0.18216455 0.15441225 0.89087713
-0.18454435 0.1592271 0.89064264
-0.18683881 0.16639164 0.89000767
-0.18699607 0.17867199 0.89075679
-0.18938974 0.18106717 0.89059508
-0.18697691 0.18350931 0.89066553
-0.1942564 0.19078887 0.89064741
-0.19412453 0.1979377 0.89004284
-0.22581856 0.2029288 0.89065236
-0.1942443 0.20534264 0.89059192
-0.22832899 0.20785959 0.89097488
-0.19661918 0.20771456 0.8903532
-0.22337015 0.21262026 0.8905701
-0.22086041 0.21254118 0.89023882
-0.22103286 0.21756421 0.89093393
-0.20153357 0.21748765 0.89062041
-0.19909641 0.21990487 0.89057803
-0.22102167 0.22241004 0.89088881
-0.20145701 0.22225857 0.89028209
-0.22569804 0.22465883 0.89017701
-0.19661109 0.22469404 0.89031655
-0.17989723 0.14239779 0.89167547
-0.18478906 0.15700726 0.89182359
-0.18475342 0.16912949 0.89165163
-0.19198003 0.18608008 0.89135033
-0.18965456 0.1886134 0.8918404
-0.194456 0.20313619 0.89156258
-0.22610268 0.20804578 0.89177299
-0.23342171 0.21050055 0.89187437
-0.22848889 0.21286587 0.89159888
-0.22606288 0.21286997 0.89161599
-0.19676311 0.21272407 0.89100492
-0.23086205 0.22010241 0.89137805
-0.19696224 0.22023293 0.89190662
-0.22359861 0.22255787 0.89148098
-0.22854665 0.22507454 0.89182425
-0.17762285 0.13279229 0.89246023
-0.18015596 0.14503664 0.89295787
-0.18483222 0.16433854 0.89203191
-0.18973686 0.17653489 0.89222735
-0.187434 0.18152417 0.89284289
-0.19214463 0.19353491 0.89211458
-0.1921228 0.20567034 0.89201319
-0.23111892 0.20818502 0.89236981
-0.23110794 0.21060748 0.89232743
-0.19475232 0.21074761 0.89292115
-0.23115483 0.21551587 0.89250845
-0.19463055 0.21548073 0.89236289
-0.19949137 0.21790873 0.89234471
-0.19719732 0.2180617 0.89297116
-0.22634064 0.22286507 0.89271152
-0.23112242 0.22521564 0.89238334
-0.19455996 0.22512881 0.89203924
-0.17532203 0.13289225 0.89313203
-0.18034458 0.13300546 0.89389277
-0.1754044 0.13539037 0.89355165
-0.17790432 0.13787584 0.89387447
-0.18028805 0.15001467 0.89361256
-0.1852034 0.167105 0.89382333
-0.18515795 0.17437145 0.89360398
-0.18759581 0.17680919 0.89361364
-0.19005847 0.18657888 0.8937397
-0.19240664 0.19136374 0.89333105
-0.19491363 0.1963063 0.89366072
-0.19495206 0.20852731 0.89383698
-0.23132695 0.21811099 0.89317304
-0.22887088 0.22295943 0.89308947
-0.19970569 0.22301283 0.89330339
-0.19742057 0.22318228 0.89398211
-0.19242087 0.22547151 0.89339715
-0.1780884 0.14045757 0.89479929
-0.18044536 0.1477076 0.89439225
-0.18042715 0.15500587 0.89430201
-0.18289571 0.15747014 0.89445281
-0.18286225 0.15987903 0.8942892
-0.18525381 0.16227631 0.89406657
-0.18535711 0.17212056 0.89456511
-0.19265328 0.20136185 0.89447623
-0.19270022 0.20872729 0.89469415
-0.23174927 0.213631 0.89480364
-0.19504116 0.21349776 0.89424551
-0.19262369 0.21595785 0.89433879
-0.19517618 0.21852407 0.89486456
-0.19503516 0.22080366 0.89421797
-0.23161614 0.22325905 0.89428961
-0.18544756 0.17952345 0.89500165
-0.18796407 0.18935941 0.89536786
-0.19037364 0.19420899 0.89522183
-0.19047686 0.20163895 0.89570719
-0.19287302 0.20403248 0.89549643
-0.19037764 0.20641448 0.8952406
-0.19281134 0.21128784 0.89521009
-0.19294906 0.21388069 0.89584947
-0.23434682 0.22109778 0.89540911
-0.19528967 0.22353248 0.89538491
-0.18078688 0.15287234 0.89608508
-0.18338408 0.16522455 0.89684117
-0.18583153 0.17745046 0.89685476
-0.18568154 0.18463537 0.89613086
-0.18822277 0.18717603 0.89660013
-0.19068973 0.19208716 0.89670819
-0.19299392 0.19683287 0.89605778
-0.19304411 0.19932719 0.89629078
-0.19057353 0.19929849 0.89616174
-0.19061841 0.20423216 0.8963728
-0.19072248 0.21167777 0.89686221
-0.23952265 0.2140386 0.89651084
-0.23456891 0.21642122 0.8962577
-0.1930961 0.22137509 0.89653218
-0.19070759 0.22143932 0.89679223
-0.18108828 0.15802051 0.89757901
-0.18108383 0.16046321 0.8975569
-0.18350467 0.16288696 0.89743096
-0.18600985 0.1825148 0.89771539
-0.18846521 0.19475855 0.89775503
-0.18835866 0.2019857 0.89724749
-0.23499879 0.21437031 0.89790022
-0.19080065 0.21665594 0.89722979
-0.19326004 0.21911716 0.89729333
-0.19326074 0.22400974 0.89729661
-0.17888615 0.14353676 0.89880759
-0.17875418 0.14587907 0.89814454
-0.1787298 0.15075491 0.89802206
-0.17885637 0.15576087 0.89865798
-0.18363976 0.17524713 0.89809161
-0.19105679 0.1973549 0.89843428
-0.18852955 0.19972098 0.89806151
-0.1910693 0.21451186 0.89849311
-0.23514567 0.2194024 0.8984614
-0.18860653 0.22184327 0.8984282
-0.23512313 0.22427903 0.89837527
-0.19106446 0.22430275 0.89847034
-0.17653784 0.13871667 0.89932567
-0.17899212 0.1485247 0.89934003
-0.18397005 0.16820496 0.8997069
-0.18386081 0.17055608 0.89917266
-0.18397711 0.18047418 0.89974147
-0.18883115 0.19268483 0.89949822
-0.18885469 0.207422 0.89961034
-0.19137667 0.20995076 0.89993852
-0.19124195 0.21960841 0.89930499
-0.17919393 0.15360062 0.90035403
-0.17931086 0.1586125 0.90094155
-0.17923541 0.16100055 0.90056247
-0.18417926 0.17330675 0.90073007
-0.18421288 0.17824976 0.90089446
-0.18652523 0.19038191 0.90020263
-0.18913756 0.19790922 0.90095782
-0.18897602 0.20510149 0.90018827
-0.23819031 0.21504198 0.90071356
-0.18899941 0.22475946 0.90029973
-0.17442751 0.13653223 0.9010877
-0.17688163 0.14144298 0.90107697
-0.18187183 0.16361874 0.90146273
-0.18182129 0.16602983 0.90121216
-0.18670118 0.18810539 0.90105182
-0.18689211 0.19567364 0.90197325
-0.18683963 0.2005346 0.90171999
-0.24582416 0.21773477 0.90169752
-0.2384717 0.21775414 0.90177768
-0.23835438 0.22256079 0.90133405
-0.17724542 0.14665638 0.90293026
-0.18940072 0.22031812 0.90221131
-0.17740969 0.14432879 0.90376711
-0.17991307 0.16407333 0.90396732
-0.18481624 0.18376106 0.90384519
-0.18464468 0.18605193 0.9030062
-0.187308 0.19364499 0.90398043
-0.18710621 0.20328216 0.90300655
-0.17757398 0.14939404 0.90460396
-0.18000425 0.1666218 0.9044255
-0.18251795 0.16913195 0.90466523
-0.18734662 0.19861415 0.90416688
-0.18993139 0.2135369 0.9047392
-0.1777512 0.15201141 0.90550679
-0.1826469 0.17171915 0.90530437
-0.1876896 0.20885426 0.90582216
-0.19005509 0.21120821 0.90532845
-0.19011942 0.21868554 0.90563488
-0.23939611 0.22106586 0.90527332
-0.17799978 0.15716743 0.90677309
-0.18284388 0.1768451 0.90628076
-0.18291336 0.18185493 0.90662515
-0.18531162 0.19166462 0.90626782
-0.18780252 0.20650929 0.90636712
-0.17565389 0.13996567 0.90742314
-0.17811161 0.1547929 0.90734279
-0.18312049 0.17463852 0.90765178
-0.18547001 0.18935601 0.9070425
-0.18548965 0.1967942 0.90713853
-0.18559662 0.20185596 0.90766162
-0.19059947 0.21676287 0.90792161
-0.24239527 0.21907862 0.90726274
-0.17593867 0.14267008 0.9088943
-0.18324749 0.1797113 0.90828127
-0.1857738 0.19461918 0.90852821
-0.24511114 0.21929587 0.90816242
-0.17845231 0.16004501 0.90907842
-0.1809445 0.16997035 0.90914971
-0.1859116 0.19972019 0.90920204
-0.18849684 0.21471201 0.90971798
-0.18123668 0.172727 0.91061777
-0.18367526 0.18509403 0.91040152
-0.18371516 0.18761639 0.91059935
-0.18608284 0.2048654 0.91003948
-0.18867821 0.21243645 0.91059327
-0.18859836 0.21978982 0.91020799
-0.18856725 0.22223422 0.91005778
-0.18399844 0.19287764 0.9120034
-0.18662561 0.21043868 0.91269398
-0.18912281 0.21791302 0.91273904
-0.18434784 0.19075319 0.91373521
-0.18438815 0.19577739 0.91393501
-0.18681796 0.20816515 0.91363466
-0.18442567 0.19830897 0.91412103
-0.18705761 0.21591304 0.91480666
-0.1872634 0.22114329 0.91581309
-0.18731442 0.21371242 0.91606259
-0.18768586 0.21914019 0.9178791
-0.18580741 0.21234681 0.92096972
-0.18583833 0.21740381 0.92112297
-0.18628611 0.21541077 0.92334247
-0.18629126 0.22045064 0.92336798
