# .PCD v0.7 - Point Cloud Data file format
VERSION 0.7
FIELDS x y z
SIZE 4 4 4
TYPE F F F
COUNT 1 1 1
WIDTH 1128
HEIGHT 1
VIEWPOINT 0 0 0 1 0 0 0
POINTS 1128
DATA ascii
-0.2006634 0.13434306 0.85584617
-0.20318267 0.13446641 0.85663193
-0.19865449 0.13456252 0.85724425
-0.20358822 0.1370745 0.85834175
-0.20130405 0.13711232 0.85857862
-0.20353203 0.13937572 0.85810483
-0.21568984 0.13498707 0.85994893
-0.21335003 0.13498978 0.85996616
-0.20619766 0.13491128 0.85946608
-0.19680569 0.13489695 0.85937476
-0.20628409 0.13731158 0.85982633
-0.20141055 0.13952644 0.85903281
-0.20394371 0.14434521 0.85984051
-0.21106568 0.13502803 0.86020982
-0.206469 0.13978052 0.86059707
-0.19946334 0.13980286 0.86073464
-0.20414442 0.14214116 0.86068672
-0.20170404 0.14441974 0.86028457
-0.22318998 0.13527066 0.86175549
-0.22066115 0.13516051 0.86105382
-0.21844812 0.13524351 0.86158258
-0.20914951 0.13530532 0.86197633
-0.21380466 0.13762656 0.8617987
-0.19954444 0.13751253 0.86108464
-0.19962628 0.14461336 0.8614378
-0.2020908 0.14939567 0.86193413
-0.22578689 0.13541934 0.86270273
-0.19519578 0.13540515 0.86261237
-0.21628076 0.1377074 0.86230493
-0.21154703 0.1376861 0.86217159
-0.21402249 0.14011829 0.86267668
-0.21160313 0.14007339 0.86240023
-0.20921673 0.14004953 0.86225337
-0.19752955 0.14009538 0.86253566
-0.20218076 0.14241055 0.86231786
-0.20699146 0.1448378 0.86277479
-0.19977134 0.14941815 0.86206377
-0.20227985 0.15894219 0.86274046
-0.20949651 0.13788331 0.86340642
-0.1977693 0.13791142 0.86358249
-0.21659152 0.14025915 0.86354393
-0.20713246 0.14258306 0.86336243
-0.20020689 0.14267899 0.86394328
-0.20943159 0.14489891 0.86313885
-0.20243196 0.14729442 0.86338925
-0.19784603 0.14973944 0.86391753
-0.20237252 0.15430948 0.8631357
-0.20011997 0.15438679 0.86356819
-0.2049043 0.15915406 0.86389047
-0.19329996 0.13572501 0.86464995
-0.22143734 0.13799129 0.86408263
-0.21913056 0.13802189 0.8642742
-0.22159047 0.1404437 0.86468017
-0.21926911 0.14046653 0.86482066
-0.20987152 0.14284556 0.86495191
-0.21206641 0.14509188 0.86428833
-0.19795132 0.14510682 0.86437732
-0.20024866 0.14741969 0.86412352
-0.21924827 0.14988174 0.86473846
-0.21693188 0.14990988 0.86490089
-0.21438004 0.14977418 0.86411792
-0.20500086 0.14980532 0.86429757
-0.20272157 0.1522188 0.86462444
-0.20277418 0.16404551 0.86484885
-0.20041366 0.16404298 0.86483556
-0.22407117 0.13816302 0.8651579
-0.22424297 0.14062902 0.86582118
-0.21238814 0.14295252 0.86559957
-0.22172792 0.14524771 0.86521655
-0.21937782 0.14525323 0.8652494
-0.21714523 0.14533752 0.86575156
-0.214726 0.14529736 0.86551237
-0.20521401 0.14760268 0.86519617
-0.21229392 0.14996444 0.8652156
-0.20753106 0.14993121 0.86502391
-0.21011819 0.15009496 0.86596859
-0.20049992 0.1523215 0.86520779
-0.21235335 0.15472461 0.86545777
-0.20768824 0.15476418 0.86567909
-0.20518215 0.15465383 0.86506188
-0.19828436 0.15479143 0.86583155
-0.20291951 0.15708569 0.86546868
-0.20061691 0.15948977 0.86571264
-0.20289466 0.16886066 0.8653627
-0.20063393 0.16894326 0.86578602
-0.22910362 0.13599223 0.86635238
-0.1912472 0.13594118 0.86602712
-0.19614328 0.13842519 0.86679959
-0.19598445 0.14067394 0.86609769
-0.19847941 0.14313149 0.8666833
-0.21739627 0.14786819 0.86675245
-0.21497335 0.14782672 0.86650938
-0.21261682 0.1478305 0.86653155
-0.21035083 0.14789802 0.86692733
-0.20790961 0.14784248 0.86660177
-0.22199506 0.15014528 0.86625892
-0.1960817 0.1501918 0.86652738
-0.21509172 0.15263465 0.86698651
-0.21267737 0.15259801 0.86677837
-0.20560053 0.15260635 0.86682576
-0.19852464 0.15261604 0.86688077
-0.21499564 0.15492868 0.86659926
-0.21024562 0.15490982 0.86649376
-0.20090912 0.15735884 0.86697358
-0.20777988 0.15955395 0.86606103
-0.20307356 0.16192678 0.8661257
-0.2008671 0.16205139 0.86679226
-0.20555913 0.16438739 0.86665124
-0.18928376 0.13622706 0.86784834
-0.22711937 0.13858399 0.86779398
-0.22708172 0.14092608 0.86765009
-0.22219124 0.14318784 0.86702448
-0.2199918 0.14329462 0.86767101
-0.21757878 0.14326309 0.8674801
-0.21511342 0.14319602 0.86707395
-0.1963072 0.14563505 0.86752391
-0.21984813 0.14792822 0.86710435
-0.19861171 0.14795494 0.86726099
-0.22236376 0.14802943 0.86769766
-0.22472918 0.15039478 0.86769849
-0.20809297 0.15270147 0.86736602
-0.22243322 0.15517351 0.86796874
-0.22006293 0.15517044 0.86795157
-0.21752438 0.15504739 0.8672632
-0.20574869 0.15744539 0.86745048
-0.21052334 0.15984452 0.86763829
-0.20579599 0.16221173 0.86764985
-0.20345795 0.16696407 0.86776519
-0.20572048 0.16924483 0.8673315
-0.1986288 0.16924563 0.86733562
-0.23215903 0.13639989 0.86894947
-0.19422215 0.13874066 0.86877501
-0.1940999 0.14101997 0.86822814
-0.22488138 0.14576301 0.86828613
-0.19426568 0.15061511 0.86896968
-0.22024482 0.15293086 0.86866897
-0.21772076 0.1528212 0.86804616
-0.21073401 0.15290226 0.86850655
-0.22506467 0.15535678 0.86899382
-0.19649135 0.15523949 0.86833775
-0.21556695 0.15770887 0.86890209
-0.21305908 0.15760575 0.868334
-0.20847371 0.15771811 0.86895305
-0.21554576 0.16006161 0.86881667
-0.21317948 0.1600631 0.86882472
-0.19889295 0.16000125 0.86848903
-0.20115784 0.16701826 0.86804688
-0.22512457 0.14355128 0.86922514
-0.19673203 0.14358038 0.86940134
-0.19443366 0.1460039 0.86972111
-0.19669263 0.14829038 0.86922723
-0.22529018 0.15314133 0.86986458
-0.22273625 0.15301575 0.86915118
-0.19672416 0.15305367 0.86936659
-0.19448431 0.15552731 0.86994767
-0.218108 0.15783373 0.86959004
-0.21098852 0.15782745 0.86955547
-0.19917963 0.15786111 0.8697409
-0.22044791 0.16018198 0.86947
-0.21802457 0.16014282 0.86925745
-0.20870629 0.16263661 0.86992246
-0.21094128 0.16490133 0.8693608
-0.20858343 0.16491073 0.86941034
-0.19921605 0.1650036 0.86989993
-0.19918823 0.16735144 0.86977845
-0.20854105 0.16961601 0.86923373
-0.2038165 0.17199741 0.8692944
-0.20148481 0.17202975 0.86945784
-0.20142132 0.17434479 0.86918384
-0.19917895 0.17445594 0.86973792
-0.19223708 0.13901767 0.87050968
-0.23029786 0.14144881 0.87086838
-0.19230607 0.14144129 0.87082207
-0.18995924 0.14146131 0.87094539
-0.2277617 0.14609239 0.8702482
-0.227828 0.15088062 0.87050152
-0.22300982 0.16031991 0.87021869
-0.19700114 0.16038842 0.87059063
-0.21123324 0.16275656 0.8705641
-0.21604021 0.16517617 0.87080967
-0.21357344 0.1651042 0.87043029
-0.20641215 0.16744171 0.87024766
-0.21114318 0.16980319 0.87019289
-0.20642643 0.17219792 0.8703078
-0.19943638 0.17230758 0.87086201
-0.20878573 0.17455937 0.87025356
-0.20651077 0.17464156 0.8706634
-0.20406187 0.17457689 0.87034094
-0.23511706 0.1367427 0.87113333
-0.18769628 0.13679416 0.87146115
-0.23058976 0.13925123 0.8719722
-0.19488814 0.14396892 0.87175405
-0.22558804 0.1485953 0.8710146
-0.19484945 0.14869192 0.87158096
-0.1924537 0.15105204 0.87149054
-0.19475009 0.15336525 0.87113649
-0.22816697 0.15585786 0.87179667
-0.22096974 0.1581855 0.87152809
-0.19728093 0.15823975 0.87182707
-0.22581881 0.1606307 0.87190568
-0.21617609 0.16290487 0.87135738
-0.21381417 0.16291498 0.87141144
-0.21630795 0.1677575 0.87188888
-0.21620563 0.17005363 0.87147641
-0.2138156 0.17004208 0.87141722
-0.2089957 0.17236035 0.87112874
-0.21147563 0.17482202 0.87156302
-0.20907408 0.17955133 0.87145543
-0.20678297 0.1796246 0.87181103
-0.2042948 0.1795264 0.87133443
-0.2018609 0.17947415 0.87108076
-0.20674212 0.18434101 0.87163883
-0.20430563 0.18428642 0.87138063
-0.23074158 0.13458608 0.87254632
-0.22836344 0.13458624 0.87254739
-0.19020884 0.13927001 0.87208974
-0.18792556 0.141718 0.87252569
-0.22824383 0.14402446 0.87209034
-0.23077418 0.14649887 0.87266958
-0.19262061 0.14642784 0.87224638
-0.23067184 0.15118933 0.87228256
-0.19260366 0.15592454 0.87216967
-0.2234695 0.1582734 0.87201244
-0.19515024 0.15843929 0.87292641
-0.19501185 0.16070472 0.87230742
-0.22126468 0.16315427 0.87269139
-0.21894902 0.16320135 0.87294322
-0.19978924 0.16310032 0.87240279
-0.2211663 0.16545948 0.87230337
-0.19733377 0.16541344 0.8720606
-0.21396545 0.16778424 0.87202793
-0.21160969 0.16780111 0.87211555
-0.20929871 0.16785425 0.87239176
-0.21895915 0.17034774 0.87298357
-0.19747074 0.17028575 0.87266588
-0.2117005 0.17262965 0.87248981
-0.19737206 0.17495577 0.87222981
-0.21177779 0.17983009 0.87280834
-0.1997989 0.17975523 0.87244499
-0.20463006 0.18220003 0.87276429
-0.20930192 0.18450308 0.87240511
-0.20221627 0.18454731 0.87261426
-0.23568209 0.13469104 0.87322682
-0.23327939 0.1346781 0.8731429
-0.22622822 0.13473108 0.8734864
-0.23326911 0.14181198 0.87310439
-0.19048153 0.14661142 0.87334001
-0.22859839 0.14900996 0.87344509
-0.19290496 0.14902513 0.87353402
-0.19054735 0.15142491 0.87364179
-0.22852573 0.15372282 0.87316746
-0.19297172 0.15384057 0.87383634
-0.22623752 0.15854746 0.87352234
-0.22867626 0.16096912 0.87374264
-0.22375432 0.16561511 0.87312382
-0.21898393 0.16560726 0.8730824
-0.19538346 0.16577554 0.87396961
-0.22138694 0.17038481 0.87317359
-0.2144472 0.17292675 0.87399137
-0.21430221 0.17519058 0.87340045
-0.20964316 0.17765814 0.87382746
-0.20234856 0.17752755 0.8731851
-0.21421598 0.17987967 0.87304902
-0.20724501 0.18240769 0.87375903
-0.20244028 0.1823705 0.87358087
-0.20029129 0.13490209 0.87459505
-0.1907286 0.13488324 0.87447286
-0.1858736 0.13720219 0.87406057
-0.23351425 0.13957858 0.87402195
-0.18834567 0.13965112 0.87447625
-0.18588275 0.14197429 0.87410361
-0.19301967 0.14434867 0.87405348
-0.19080298 0.14447424 0.8748138
-0.23368984 0.14683624 0.87467915
-0.23376331 0.15165238 0.87495416
-0.23122919 0.15632153 0.87439018
-0.19314785 0.16113332 0.87463391
-0.22402853 0.16343516 0.87419385
-0.19791088 0.16351314 0.87461096
-0.22178832 0.16830929 0.87475669
-0.21928975 0.16822173 0.87430167
-0.22419022 0.17070702 0.87482476
-0.216913 0.1729933 0.87432772
-0.22419222 0.17547785 0.87483257
-0.21940579 0.17546415 0.87476432
-0.2170238 0.17546616 0.87477434
-0.20740259 0.1777793 0.87442338
-0.20497617 0.17774212 0.87424052
-0.20016943 0.17770602 0.87406296
-0.19790827 0.1801991 0.8745994
-0.20968612 0.18245935 0.87400651
-0.2001712 0.18485533 0.8740707
-0.21465851 0.18740539 0.8748526
-0.18853335 0.13501817 0.87534761
-0.23877412 0.13748114 0.87583756
-0.18374966 0.13739558 0.87529248
-0.23634671 0.13984483 0.87568927
-0.23628165 0.14219268 0.87544823
-0.23147945 0.14456056 0.87533653
-0.18867113 0.14466804 0.87598729
-0.18849406 0.14691783 0.87516522
-0.23155813 0.1493834 0.87563407
-0.18852416 0.15171318 0.87530494
-0.2314779 0.15410365 0.87533069
-0.19092962 0.15650107 0.87539446
-0.22914203 0.15891045 0.87552226
-0.19334328 0.15890983 0.87551886
-0.22669902 0.16364275 0.87530422
-0.22668593 0.16601911 0.87525368
-0.19338407 0.16610444 0.87570357
-0.19806153 0.16840933 0.87527668
-0.19569151 0.17080903 0.87534761
-0.22203124 0.17326774 0.87571478
-0.21948232 0.17314005 0.87506944
-0.22190702 0.17555653 0.87522483
-0.2123332 0.17791633 0.87509739
-0.21482117 0.17800134 0.87551552
-0.1982082 0.17808457 0.87592489
-0.21710853 0.18030553 0.87511587
-0.20040233 0.18268344 0.87507993
-0.19813722 0.18518113 0.87561119
-0.20776622 0.18764186 0.87595648
-0.20522025 0.18749727 0.87528151
-0.20295623 0.19238454 0.87580734
-0.20061111 0.19242503 0.87599164
-0.23885596 0.13514003 0.87613773
-0.22458851 0.13517725 0.87637901
-0.19832662 0.13518792 0.87644821
-0.19590989 0.13516884 0.87632442
-0.19345769 0.13512449 0.87603694
-0.18633093 0.13515137 0.87621117
-0.18166023 0.13762018 0.87672335
-0.18630226 0.13990666 0.87607634
-0.19107749 0.14945817 0.87607241
-0.18648607 0.1519967 0.87694067
-0.1911276 0.15427469 0.87630218
-0.1888328 0.15674126 0.87673795
-0.19127423 0.16156453 0.87697446
-0.19594666 0.16386424 0.87648892
-0.19362934 0.17109522 0.87681425
-0.21987379 0.18061753 0.87663019
-0.21500017 0.18292667 0.87624502
-0.21266125 0.18296933 0.87644941
-0.21984099 0.18775818 0.87649947
-0.21738335 0.18769908 0.87622356
-0.21261753 0.18770885 0.87626922
-0.21017355 0.18765937 0.87603819
-0.20306008 0.18770592 0.87625551
-0.20311205 0.19014309 0.87647974
-0.19823852 0.19005179 0.87605888
-0.20542374 0.19245967 0.87614942
-0.20795502 0.19737193 0.8767525
-0.20560375 0.197409 0.87691718
-0.20791554 0.20211332 0.87658602
-0.2055352 0.20212227 0.87662482
-0.20315813 0.20691404 0.87667859
-0.1841644 0.13531439 0.87726814
-0.18416677 0.1424901 0.8772794
-0.23442447 0.1449061 0.87742883
-0.18666469 0.1449642 0.87778062
-0.18660592 0.1473105 0.87750429
-0.23445477 0.14970891 0.8775422
-0.18906263 0.14975375 0.87780499
-0.23439503 0.15684506 0.87731862
-0.18663745 0.15690476 0.87765253
-0.23215173 0.16173112 0.87787879
-0.22970761 0.16408753 0.87768328
-0.1938497 0.16411161 0.87781209
-0.22970319 0.16647676 0.87766641
-0.22477932 0.16876468 0.87712353
-0.19623862 0.16889384 0.87779486
-0.2272912 0.17124672 0.87759066
-0.22477126 0.17354026 0.87709212
-0.19861519 0.17366518 0.87772346
-0.22728027 0.1760226 0.87754846
-0.22011024 0.17841965 0.87757295
-0.2175878 0.17831284 0.87704766
-0.21997097 0.18308797 0.87701768
-0.2177472 0.18322836 0.87769014
-0.1984577 0.18309002 0.87702751
-0.21538134 0.18564372 0.8777985
-0.19616991 0.18557794 0.87748754
-0.20084642 0.18786949 0.87701911
-0.19866601 0.18806848 0.87794805
-0.20574334 0.19036716 0.87751257
-0.20087884 0.19029082 0.87716067
-0.21055719 0.19278653 0.87763733
-0.20812376 0.19274843 0.87746388
-0.19857185 0.19276336 0.87753189
-0.21781825 0.19764748 0.87797654
-0.21303026 0.19764607 0.87797022
-0.21048634 0.19750464 0.87734199
-0.20340204 0.19759224 0.87773114
-0.20102149 0.19760405 0.8777836
-0.21042581 0.20222944 0.87708968
-0.20326188 0.2022379 0.87712634
-0.18198094 0.13546911 0.87827116
-0.18434136 0.14023159 0.87811106
-0.23704155 0.147438 0.87826377
-0.23721783 0.15233922 0.87891686
-0.23482752 0.15473862 0.87893736
-0.18911655 0.15458335 0.87805539
-0.18680093 0.15464777 0.87842131
-0.23233818 0.15946613 0.87858379
-0.19155301 0.15940602 0.87825263
-0.18916978 0.16180919 0.87830251
-0.19154376 0.16657992 0.87821025
-0.19406593 0.16908556 0.87879127
-0.19164945 0.17146219 0.87869483
-0.1962927 0.17612055 0.87803674
-0.19408138 0.17628594 0.87886125
-0.22516724 0.17863604 0.87863731
-0.22269909 0.17857739 0.87834889
-0.22268385 0.18095924 0.87828875
-0.19635634 0.18096597 0.87832141
-0.22044511 0.18587837 0.87890804
-0.21792418 0.18577167 0.87840354
-0.21306936 0.1857141 0.87813133
-0.19636007 0.19054624 0.8783381
-0.21547239 0.19290344 0.8781696
-0.21306072 0.19288722 0.87809575
-0.20839831 0.19539768 0.8786214
-0.20586742 0.19526877 0.87804174
-0.20347629 0.19527094 0.87805158
-0.2012016 0.19538626 0.87857008
-0.22029403 0.19772157 0.87830567
-0.21566446 0.19786716 0.87895238
-0.20826732 0.20006181 0.87806916
-0.2059782 0.20016322 0.87851423
-0.21552864 0.20253129 0.87839884
-0.21310295 0.20250155 0.87826979
-0.20359617 0.20496534 0.87856889
-0.20595719 0.20732614 0.87842464
-0.20107165 0.20722651 0.87800258
-0.20352422 0.21207488 0.87825835
-0.20600472 0.21695398 0.87862736
-0.20352714 0.21686597 0.87827098
-0.23988326 0.14291671 0.87990594
-0.18468064 0.14528568 0.87972724
-0.18467423 0.14767855 0.87969673
-0.18701716 0.15003236 0.8794381
-0.1870487 0.16204573 0.87958646
-0.19188064 0.16447482 0.87975478
-0.18941924 0.16681711 0.87946075
-0.22789149 0.16930051 0.87990844
-0.18952754 0.17170976 0.87996358
-0.22784317 0.17406058 0.87972188
-0.230306 0.17650826 0.87996966
-0.22533417 0.18116526 0.87928867
-0.22297545 0.18359341 0.87943882
-0.19651772 0.18351084 0.87904328
-0.22306634 0.18846463 0.87979734
-0.21569481 0.19070636 0.87907612
-0.2086394 0.19082822 0.87963784
-0.22068347 0.19327441 0.87985837
-0.21814415 0.1931496 0.87929016
-0.19664267 0.19321814 0.87960219
-0.21105263 0.20043392 0.87970239
-0.20373134 0.20030856 0.87915218
-0.20133485 0.20270492 0.87915188
-0.2087175 0.20529155 0.87996715
-0.20621309 0.20518631 0.87951607
-0.21589966 0.20767693 0.87991095
-0.21334451 0.20752457 0.87926537
-0.21111286 0.20768696 0.87995344
-0.20858739 0.20756073 0.87941861
-0.19895494 0.20751502 0.8792249
-0.21335806 0.2123315 0.87932116
-0.20614536 0.21230882 0.87922722
-0.2013326 0.21228826 0.87914205
-0.20872176 0.21728922 0.87998509
-0.20630583 0.22206809 0.8799116
-0.24006927 0.14062719 0.88058823
-0.18244445 0.14061439 0.88050812
-0.18240653 0.14298481 0.88032514
-0.23755459 0.14535792 0.88016462
-0.23769325 0.15024395 0.88067836
-0.18476558 0.1525498 0.88013184
-0.23775257 0.15748501 0.88089818
-0.18963677 0.15980861 0.88047069
-0.1872305 0.15980329 0.88044137
-0.18965313 0.16462286 0.88054669
-0.23037629 0.17176336 0.88023823
-0.19684474 0.17421575 0.8805061
-0.19454308 0.17430396 0.88095194
-0.19689415 0.17906092 0.88072711
-0.19438042 0.18135619 0.88021535
-0.22563788 0.18380947 0.88047379
-0.22562365 0.18859763 0.88041824
-0.19673558 0.18851186 0.88001782
-0.21358703 0.19096424 0.88026482
-0.21113907 0.19092038 0.8800627
-0.21361022 0.19578442 0.88036042
-0.21116078 0.19573833 0.88015318
-0.22319059 0.1981677 0.88028741
-0.19918798 0.19816035 0.88025475
-0.21368726 0.20065619 0.88067788
-0.22081952 0.2029929 0.88040084
-0.21842025 0.20299342 0.8804031
-0.22333387 0.20309703 0.88085246
-0.19929558 0.20306885 0.88073027
-0.21129154 0.2054621 0.8806982
-0.20171969 0.20549339 0.88083231
-0.21847241 0.20784271 0.88061333
-0.20401503 0.21018654 0.88037634
-0.21849231 0.21266291 0.88069355
-0.21600573 0.21257831 0.88034326
-0.21114948 0.21252105 0.88010609
-0.20878913 0.21256042 0.88026911
-0.20410295 0.21507871 0.88075572
-0.2016837 0.21745963 0.8806752
-0.20643033 0.21980214 0.88044262
-0.20415902 0.22234219 0.88099772
-0.22093034 0.22710513 0.88084263
-0.21134086 0.22712089 0.88090378
-0.18020414 0.1359347 0.88128966
-0.18031694 0.13842355 0.88184136
-0.18505965 0.1503897 0.88153267
-0.23804277 0.15527311 0.88197339
-0.18506402 0.15519919 0.88155341
-0.18502855 0.15757196 0.88138449
-0.23561959 0.16006841 0.88190204
-0.23539543 0.16231775 0.88106304
-0.23321958 0.16487901 0.88191682
-0.23311006 0.16720442 0.88150269
-0.19216037 0.16951771 0.88103729
-0.18989755 0.16964167 0.88168156
-0.19216825 0.17672966 0.88107347
-0.22824907 0.17917518 0.88128912
-0.22822952 0.18396392 0.88121361
-0.22341387 0.18635632 0.88116801
-0.19471796 0.18647811 0.88174385
-0.22105891 0.19120078 0.88135523
-0.21858403 0.19113743 0.88106322
-0.19456451 0.19113435 0.88104898
-0.22350757 0.19364327 0.88153756
-0.21871908 0.19606178 0.88160759
-0.21634947 0.19609214 0.88174415
-0.19954944 0.19611615 0.88185209
-0.1969714 0.19834447 0.88107264
-0.22118111 0.20092154 0.88184249
-0.21625212 0.20080873 0.88134742
-0.20185433 0.20082533 0.88142025
-0.21632446 0.20568235 0.88164228
-0.21388881 0.20565116 0.88150859
-0.19951174 0.20569243 0.8816855
-0.21390072 0.21046858 0.88155764
-0.20670445 0.21048149 0.88161176
-0.20190445 0.21048802 0.88163912
-0.22103439 0.21279909 0.88125753
-0.19948874 0.21287788 0.88158387
-0.20658205 0.21516028 0.88108975
-0.20197968 0.21537465 0.8819676
-0.21398124 0.21775948 0.88188952
-0.21146381 0.21764262 0.88141626
-0.20417595 0.21995898 0.88107079
-0.20904721 0.22243294 0.88135725
-0.2018715 0.22246777 0.88149524
-0.20676893 0.22497046 0.88188678
-0.21621524 0.22719651 0.88119709
-0.20899798 0.22718428 0.88114965
-0.18036036 0.13364822 0.88205373
-0.1779896 0.13367343 0.88222015
-0.18292306 0.14579612 0.88281798
-0.18281776 0.14811723 0.88230979
-0.18534987 0.16265896 0.88291508
-0.1877196 0.16503316 0.88274133
-0.18760833 0.16734013 0.88221812
-0.18529908 0.16742645 0.8826732
-0.23100825 0.16982855 0.88265282
-0.18758695 0.17213008 0.88211757
-0.23099867 0.17463325 0.88261622
-0.19251865 0.17464587 0.88268
-0.19485627 0.17939496 0.88237017
-0.19247468 0.18182246 0.88247842
-0.22612737 0.18661346 0.88238382
-0.19487467 0.18903361 0.8824535
-0.22615661 0.19385423 0.88249791
-0.22127955 0.19620129 0.88223493
-0.19488315 0.19866396 0.88249189
-0.21888401 0.20101948 0.88227236
-0.19733962 0.20352757 0.88271976
-0.22124137 0.20818952 0.8820827
-0.1972376 0.20823215 0.88226336
-0.21661973 0.21077608 0.88284564
-0.21163398 0.21060416 0.88212556
-0.20921391 0.21058851 0.88206005
-0.19969325 0.2106906 0.8824876
-0.22366956 0.21302098 0.88217646
-0.21410292 0.21547806 0.88239104
-0.21168092 0.215461 0.88232118
-0.20931952 0.21550596 0.8825053
-0.22133391 0.21789828 0.88245165
-0.21883424 0.21780448 0.88207179
-0.21646856 0.21784343 0.88222951
-0.20927393 0.22026911 0.88231313
-0.22128734 0.22266228 0.88226599
-0.21661626 0.22280501 0.88283151
-0.21179742 0.22279876 0.88280678
-0.20939486 0.22520927 0.88282293
-0.20217367 0.22520716 0.88281465
-0.24074551 0.14824463 0.88306874
-0.18557738 0.16526826 0.88399881
-0.23617658 0.16767561 0.88398677
-0.23371659 0.17245765 0.88379627
-0.190185 0.17471237 0.88301611
-0.1903214 0.17724636 0.88364941
-0.22890975 0.18210301 0.88384002
-0.23128526 0.18448533 0.88371128
-0.19504666 0.18438536 0.88323236
-0.19267878 0.18683137 0.88341421
-0.22875817 0.18920526 0.88325477
-0.22885564 0.19410315 0.88363111
-0.22402008 0.19649574 0.88355899
-0.19744772 0.19641663 0.88320327
-0.22650056 0.19896747 0.88384008
-0.2240161 0.20130906 0.88354331
-0.1999467 0.20132372 0.88360769
-0.22638375 0.20368078 0.88338429
-0.19520845 0.20381467 0.88396496
-0.22395505 0.20847741 0.88330251
-0.19521028 0.20863572 0.88397324
-0.21921951 0.21096209 0.88362473
-0.21674874 0.21571746 0.88337141
-0.20003036 0.21827503 0.88397741
-0.2023008 0.22053292 0.8833698
-0.21906507 0.22284809 0.88300222
-0.21687216 0.2254775 0.88387442
-0.21203913 0.22546217 0.88381428
-0.20470859 0.22534864 0.88336927
-0.18317451 0.13394788 0.88403147
-0.17612521 0.13408484 0.88493538
-0.18078052 0.1435993 0.88410848
-0.24115978 0.14608848 0.8845883
-0.18075842 0.14840104 0.88400042
-0.18320735 0.15325318 0.88418996
-0.18336625 0.15821062 0.8849569
-0.18578669 0.16062996 0.88499594
-0.18803146 0.17012775 0.88420784
-0.23159954 0.17991176 0.88491207
-0.22896028 0.18696268 0.88403511
-0.2242187 0.19184881 0.88434237
-0.19529516 0.19426273 0.88435757
-0.19289967 0.19909959 0.88442695
-0.19779319 0.20158367 0.88474858
-0.2218637 0.20636395 0.88456392
-0.2194289 0.20634174 0.88446873
-0.19775595 0.20636816 0.88458198
-0.22182332 0.21114787 0.88440293
-0.19772193 0.21356511 0.88442981
-0.21943553 0.21599194 0.88449544
-0.22196284 0.21610521 0.88495922
-0.20023835 0.21608989 0.88489652
-0.2241912 0.21833836 0.88423389
-0.21223228 0.22084486 0.88461936
-0.21455874 0.22316793 0.88426954
-0.20009045 0.22316122 0.88424295
-0.19774371 0.22323298 0.88452733
-0.221836 0.22562523 0.88445348
-0.21954687 0.22575043 0.88494426
-0.20024718 0.22574823 0.88493562
-0.17868282 0.1366082 0.88565612
-0.17872861 0.13905799 0.88588309
-0.18113494 0.14146617 0.88584179
-0.18097536 0.14616661 0.88506138
-0.18338405 0.15098852 0.88504279
-0.18352804 0.15593584 0.88573772
-0.23664831 0.1655961 0.88575244
-0.23418228 0.17038739 0.88555729
-0.18838625 0.17527826 0.88587618
-0.2340485 0.17752758 0.88505137
-0.19304146 0.1799453 0.88507706
-0.19065961 0.18238728 0.88521975
-0.19310574 0.18483198 0.88537174
-0.19069874 0.18725164 0.88540143
-0.23183082 0.18974957 0.88579577
-0.22682303 0.19201283 0.8850984
-0.22695415 0.19695188 0.88561004
-0.1954855 0.19686504 0.88521951
-0.19550791 0.2017141 0.88532102
-0.19321026 0.20424953 0.88585097
-0.22686601 0.20652777 0.88526613
-0.22442147 0.20649883 0.88514209
-0.19553715 0.20657146 0.8854534
-0.22690664 0.20897828 0.88542467
-0.22453216 0.21142858 0.88557869
-0.19790693 0.21135187 0.88525736
-0.22445837 0.21618541 0.88528764
-0.21493845 0.22114822 0.88583446
-0.22452103 0.22348724 0.88553476
-0.21476877 0.22579913 0.88513517
-0.19795975 0.22589058 0.88549364
-0.24162722 0.15361941 0.88630289
-0.23917258 0.16084114 0.88615942
-0.23918977 0.1632684 0.88622314
-0.18607233 0.17054118 0.88635659
-0.23674351 0.17290889 0.88610876
-0.1860785 0.17296298 0.88638598
-0.23451683 0.17546546 0.88682234
-0.18861656 0.17791025 0.8869592
-0.23456223 0.18033504 0.88699406
-0.23212889 0.18757591 0.8869347
-0.19339539 0.18994322 0.8866998
-0.22959842 0.19231668 0.88649905
-0.19327092 0.19223642 0.88612908
-0.19342214 0.1972215 0.8868224
-0.2296747 0.19963235 0.88679355
-0.22710033 0.20190991 0.88618046
-0.19331485 0.2019441 0.88633049
-0.19582751 0.2117126 0.88676828
-0.19571252 0.21400404 0.88624758
-0.1980864 0.21878929 0.88606012
-0.19568297 0.21880254 0.88611376
-0.22233994 0.22130506 0.88646269
-0.21983689 0.22121781 0.88611323
-0.21740507 0.22120111 0.88604629
-0.22725239 0.22379996 0.88677388
-0.18621348 0.13440205 0.88702887
-0.1789666 0.14407913 0.88706267
-0.17906675 0.14899844 0.88755906
-0.18384594 0.16346163 0.88727194
-0.18383561 0.16828929 0.88722211
-0.23722498 0.17084023 0.88791084
-0.19115292 0.18043998 0.88751012
-0.23224907 0.18283522 0.88739383
-0.23474643 0.18531607 0.8876906
-0.1911608 0.18528603 0.88754672
-0.23217906 0.19487093 0.88712639
-0.22979285 0.19731654 0.88724977
-0.22974046 0.2045254 0.88704747
-0.19354334 0.20943935 0.88737816
-0.22732064 0.21419545 0.8870402
-0.19362436 0.21436675 0.88774961
-0.1983642 0.21667749 0.88730276
-0.22741987 0.21912691 0.88742739
-0.20077099 0.22150171 0.88725042
-0.19594826 0.22393653 0.88731503
-0.22492766 0.22631021 0.88713861
-0.18162173 0.15153097 0.8882224
-0.18167588 0.15399803 0.88848728
-0.18407241 0.16124144 0.88836491
-0.18416058 0.16616407 0.88879043
-0.23744108 0.17826338 0.88871968
-0.18885848 0.18298008 0.88809687
-0.19147024 0.1904324 0.88898337
-0.19126935 0.1926533 0.88805073
-0.19385871 0.19524387 0.88882411
-0.19143045 0.20008372 0.88879865
-0.19135332 0.20484661 0.88844055
-0.23009153 0.2072596 0.888403
-0.19376697 0.20725968 0.88840342
-0.23019582 0.20977627 0.88880563
-0.22774492 0.21217278 0.88869578
-0.19615093 0.2169046 0.88823277
-0.19374292 0.21934068 0.88829315
-0.22526242 0.22180341 0.88845891
-0.19856037 0.22173385 0.88818032
-0.19381255 0.22426397 0.88861245
-0.17457487 0.13475007 0.8893258
-0.17935911 0.14197184 0.88900822
-0.1793675 0.14682528 0.88904977
-0.18180561 0.1589552 0.88912171
-0.24002233 0.16868491 0.88930786
-0.23770635 0.17603733 0.88971257
-0.18677214 0.17845803 0.8896901
-0.23521791 0.1832637 0.8894735
-0.18921807 0.18817931 0.88978785
-0.23277597 0.19294755 0.8894071
-0.23288378 0.20031343 0.88981903
-0.19394633 0.21229932 0.88922578
-0.22783723 0.21710563 0.88905603
-0.19168465 0.21975693 0.88997889
-0.22806737 0.22217667 0.88995403
-0.19639283 0.22202042 0.88932818
-0.17721744 0.13734351 0.89042324
-0.24043833 0.16654897 0.89084917
-0.18460928 0.17385472 0.89095592
-0.18684284 0.17609952 0.89002693
-0.18929085 0.18097264 0.89013004
-0.18697952 0.18351187 0.89067793
-0.18933628 0.18586993 0.89034367
-0.19184172 0.19565775 0.89070821
-0.23310487 0.1980758 0.8906638
-0.19181244 0.19805543 0.89057225
-0.18933374 0.20042884 0.89033175
-0.23054723 0.20281719 0.89016247
-0.19182168 0.21020333 0.89061511
-0.1917803 0.2150123 0.890423
-0.19412912 0.21735175 0.89006388
-0.19427919 0.22237587 0.89075196
-0.23051724 0.22462593 0.89004666
-0.17744441 0.13994966 0.89156365
-0.17742176 0.14479169 0.89144981
-0.17990443 0.15212613 0.89171112
-0.17981699 0.15448168 0.89127773
-0.18222962 0.15689667 0.89119536
-0.17979783 0.15932366 0.89118272
-0.18220651 0.1641636 0.89108229
-0.18223432 0.1690473 0.8912183
-0.18471317 0.17152262 0.89145738
-0.2406463 0.17398426 0.89161974
-0.23831359 0.18134984 0.89198542
-0.18721925 0.1813162 0.89181989
-0.23583595 0.1886071 0.8918106
-0.23572662 0.19094947 0.89139718
-0.1895888 0.19340834 0.89153117
-0.23585494 0.19591567 0.89188242
-0.18952985 0.19820704 0.89125395
-0.18962702 0.20560063 0.89171088
-0.19204383 0.20801628 0.8916465
-0.23345287 0.22511725 0.89199346
-0.19205773 0.22504598 0.89171106
-0.17518225 0.1327863 0.89241993
-0.15573658 0.14009765 0.89250636
-0.17764112 0.14983663 0.89255202
-0.18259232 0.16207711 0.89296907
-0.18983813 0.19122933 0.89270359
-0.2360549 0.20094815 0.89263856
-0.19213705 0.20325392 0.89207935
-0.23355035 0.20575167 0.89236593
-0.23347472 0.21054836 0.89207691
-0.19213225 0.21297526 0.89205706
-0.18976249 0.21547709 0.89234787
-0.19215433 0.21786352 0.89215958
-0.23103771 0.22026987 0.89205623
-0.19229852 0.22289442 0.89282906
-0.17774305 0.13288215 0.89306408
-0.17302848 0.13300063 0.89386034
-0.1729417 0.13536923 0.89341205
-0.15352045 0.13785942 0.89376795
-0.17780972 0.14754356 0.89339906
-0.18019681 0.16454643 0.89316034
-0.18275782 0.16709661 0.8937785
-0.24109547 0.17187406 0.89328396
-0.18522537 0.17930835 0.8939293
-0.2387971 0.18659046 0.89379513
-0.23639864 0.19393058 0.89393842
-0.19006667 0.19633213 0.89377826
-0.23397405 0.20368807 0.89398479
-0.19009489 0.20367126 0.893911
-0.18763281 0.20607999 0.89378989
-0.23383813 0.20844063 0.89346546
-0.18994251 0.21081211 0.89319444
-0.23138008 0.21329068 0.89337814
-0.23128755 0.21563962 0.89302093
-0.19005983 0.22068715 0.89374614
-0.23130649 0.22296058 0.89309406
-0.15601592 0.13791175 0.89410722
-0.14877535 0.14041597 0.89453423
-0.17793237 0.14277145 0.89401531
-0.18050697 0.15751325 0.89469767
-0.18053448 0.16241561 0.89483404
-0.23909003 0.18438002 0.89489156
-0.18532279 0.18427864 0.89439946
-0.18781707 0.18677261 0.89466763
-0.18777481 0.18916875 0.89446628
-0.18779676 0.19406778 0.89457089
-0.2365108 0.19889836 0.89436251
-0.18788661 0.19903988 0.89499891
-0.23166052 0.21842551 0.89446098
-0.19030719 0.21853499 0.89490932
-0.18784985 0.22095326 0.89482379
-0.17569722 0.13805614 0.89504337
-0.17580934 0.14058554 0.8956145
-0.16105296 0.14049083 0.89501113
-0.1586283 0.14050411 0.89509577
-0.17588165 0.14552797 0.89598292
-0.17823629 0.15522087 0.89554238
-0.18316562 0.17235294 0.89577287
-0.18301864 0.17465441 0.89505404
-0.18558905 0.17721891 0.89568448
-0.1880495 0.20165417 0.89577478
-0.19035296 0.21370763 0.89512455
-0.19038564 0.22350585 0.89527822
-0.15149847 0.13823745 0.89621878
-0.16628073 0.14078586 0.8968907
-0.16370836 0.14067622 0.89619219
-0.16626507 0.14321715 0.89680618
-0.15151906 0.14314279 0.89634055
-0.14911824 0.14318356 0.8965959
-0.17847875 0.15298758 0.89676058
-0.17846975 0.16031279 0.8967154
-0.18577635 0.18228568 0.89658844
-0.23720744 0.20437434 0.89699686
-0.23709624 0.20672247 0.89657634
-0.19060682 0.20910619 0.89631832
-0.23460826 0.21401404 0.89640802
-0.23473829 0.21657749 0.89690489
-0.23456244 0.22130121 0.89623296
-0.23463702 0.22381534 0.89651793
-0.188282 0.22390631 0.8968823
-0.18105687 0.13353077 0.89742327
-0.17379355 0.1384833 0.89781272
-0.15896884 0.13836062 0.89701736
-0.16877741 0.14082916 0.89716655
-0.17626069 0.14339404 0.89791381
-0.16879721 0.1432915 0.89727181
-0.16400605 0.14337935 0.89782184
-0.15415849 0.14332515 0.89748251
-0.16886435 0.1457953 0.89762872
-0.14689244 0.14584416 0.89792955
-0.17622249 0.15070406 0.89771914
-0.17866534 0.16538243 0.8976981
-0.18109961 0.17026444 0.8976351
-0.1883955 0.19224028 0.89742297
-0.18598185 0.19472064 0.89758027
-0.18843895 0.19717821 0.89762998
-0.18843083 0.21918993 0.89759129
-0.17385177 0.1409778 0.89811349
-0.17139854 0.14097358 0.89808661
-0.17156547 0.14356132 0.89896131
-0.16176799 0.14356506 0.89898473
-0.17390573 0.14591931 0.8983922
-0.17140473 0.14587495 0.89811909
-0.17646465 0.14846076 0.89895278
-0.17396124 0.15086518 0.89867896
-0.17629826 0.15566507 0.8981052
-0.18136102 0.16805987 0.89893085
-0.18362796 0.18013167 0.89803392
-0.18373159 0.18513188 0.89854068
-0.18615176 0.19000073 0.89840025
-0.18852019 0.20460677 0.89801693
-0.18620346 0.20720053 0.89864975
-0.18859452 0.20958507 0.89837098
-0.18851843 0.21194835 0.89800858
-0.23767847 0.21212997 0.89877808
-0.17410733 0.13137817 0.89943361
-0.15695298 0.13628823 0.89947736
-0.16187249 0.13875365 0.89956546
-0.14720163 0.1412456 0.89981955
-0.14709252 0.14359187 0.89915258
-0.16677845 0.14611146 0.89957529
-0.14955057 0.14604975 0.89919531
-0.14463763 0.14603883 0.89912808
-0.17173034 0.15105762 0.89982522
-0.174115 0.15590219 0.89947331
-0.17906047 0.15839101 0.89968348
-0.17661035 0.16084547 0.89969504
-0.18640339 0.18780537 0.89961469
-0.18628587 0.19994023 0.89904743
-0.18642293 0.20253982 0.89970893
-0.18875338 0.21711425 0.89912778
-0.23541225 0.21965115 0.89947999
-0.17193756 0.13159397 0.90091091
-0.17188622 0.13400969 0.90064198
-0.17186081 0.13644452 0.90050882
-0.15469615 0.13646026 0.90061271
-0.17185274 0.13889264 0.9004665
-0.17432337 0.14381498 0.90054971
-0.15720725 0.14387643 0.90093458
-0.17431732 0.14871931 0.90051842
-0.1768187 0.15366927 0.90075642
-0.17915484 0.16338186 0.90015763
-0.18169661 0.17573547 0.90059423
-0.1840761 0.17811741 0.90022552
-0.1842121 0.19052742 0.90089065
-0.18661673 0.19784035 0.90064424
-0.18666957 0.2052635 0.90089929
-0.23804255 0.21000123 0.90015483
-0.14986601 0.13898911 0.90109193
-0.15980738 0.14400651 0.90174901
-0.14509338 0.14404039 0.90196121
-0.17202283 0.14885794 0.90135777
-0.14501391 0.14887601 0.9014672
-0.1721099 0.15630789 0.90181398
-0.17701347 0.15875459 0.90174866
-0.17441314 0.16108118 0.90101349
-0.17206687 0.16118398 0.9015885
-0.17698473 0.16610168 0.90160221
-0.18429968 0.18324745 0.90131897
-0.18680142 0.19312127 0.90153563
-0.18426807 0.19549818 0.90116441
-0.23840839 0.21769632 0.90153825
-0.23851857 0.2227141 0.90195489
-0.14522748 0.15155613 0.90279478
-0.17461491 0.15389095 0.9020558
-0.1747269 0.15891051 0.90263432
-0.17971855 0.16881876 0.90298998
-0.17964189 0.17120709 0.90260476
-0.18210445 0.17366956 0.90261573
-0.18700489 0.21055245 0.90251762
-0.23860845 0.21541949 0.90229475
-0.18937464 0.2153699 0.90208709
-0.16018738 0.13695732 0.90389323
-0.1699416 0.13933817 0.903355
-0.17004181 0.14927575 0.90388775
-0.14772363 0.14913088 0.90301049
-0.14294933 0.15175013 0.90395039
-0.17246467 0.15416682 0.90367287
-0.17726764 0.16390565 0.90304345
-0.17251092 0.16406387 0.90391523
-0.17235631 0.16637856 0.90310508
-0.18230249 0.18124759 0.9035973
-0.18714628 0.21317361 0.90319997
-0.18711184 0.22298048 0.90303373
-0.15283537 0.13699281 0.90412742
-0.16777347 0.13958301 0.90494227
-0.16518584 0.13948092 0.90428042
-0.17018987 0.15187173 0.90467477
-0.17261989 0.15923655 0.90448624
-0.1751539 0.16423176 0.90484017
-0.1749962 0.16654812 0.9040255
-0.18486105 0.18873429 0.90406436
-0.18485397 0.20104825 0.90402973
-0.23911972 0.22081064 0.90422815
-0.15311842 0.1471228 0.90580183
-0.1431178 0.14946204 0.90501571
-0.17031877 0.16679396 0.90535992
-0.18259308 0.17906952 0.90503764
-0.1679154 0.18167093 0.90570784
-0.18272258 0.18660274 0.90567952
-0.18505278 0.19386381 0.905002
-0.18509217 0.1988399 0.90519464
-0.18514942 0.20877412 0.9054746
-0.18761855 0.21864796 0.90547925
-0.14577115 0.14224315 0.90617448
-0.1655383 0.14718907 0.90620989
-0.14331988 0.14720266 0.90629351
-0.14834626 0.15223128 0.90681648
-0.14334342 0.15463932 0.90644246
-0.17055145 0.16207935 0.90659678
-0.17792407 0.16945392 0.90638739
-0.17295705 0.16942877 0.90625286
-0.17054972 0.16949135 0.9065876
-0.1704732 0.1718854 0.90618086
-0.18036421 0.17683598 0.90623403
-0.1828686 0.19169326 0.90640324
-0.18780114 0.22133134 0.90636045
-0.17070217 0.13748837 0.90739799
-0.14356451 0.15982707 0.90784049
-0.17078719 0.16477802 0.90784985
-0.17566325 0.16965659 0.90747148
-0.17823568 0.1722257 0.90797484
-0.1806246 0.17461748 0.90754241
-0.18315461 0.18456937 0.90782094
-0.16825566 0.18451287 0.90754306
-0.16817006 0.18689159 0.90708143
-0.16575862 0.1869605 0.90741599
-0.18313029 0.1969161 0.90770042
-0.18564108 0.20437905 0.90787905
-0.18561386 0.20682345 0.90774596
-0.18795741 0.21657021 0.90711462
-0.14620115 0.15504962 0.90884757
-0.17095469 0.15750839 0.90874022
-0.17342003 0.1723592 0.90867871
-0.16851053 0.17735969 0.90891778
-0.1684608 0.17978418 0.90864962
-0.17087927 0.18219879 0.90833938
-0.16603363 0.18974827 0.90892148
-0.16601475 0.19220398 0.90881813
-0.16353843 0.19220512 0.90882349
-0.18578044 0.21196224 0.90856057
-0.24278286 0.21942893 0.90871346
-0.17113383 0.15519378 0.90969253
-0.14624499 0.15757424 0.90912008
-0.14384975 0.16758324 0.90964419
-0.16870555 0.17260408 0.90996975
-0.18097132 0.18238837 0.90928447
-0.1661882 0.18248527 0.90976757
-0.1661592 0.18493287 0.90960884
-0.18359117 0.19493119 0.90998477
-0.16123198 0.19488895 0.9097876
-0.15872282 0.19485307 0.90962011
-0.15615933 0.1947483 0.90913099
-0.16125362 0.19739538 0.90990973
-0.18591945 0.2145993 0.90924042
-0.14155245 0.15786833 0.91081685
-0.17129591 0.16030481 0.91055411
-0.1439956 0.16527112 0.91056657
-0.14150696 0.17022732 0.91052419
-0.17617303 0.17262976 0.91010505
-0.17134605 0.17524824 0.91082066
-0.168882 0.17526764 0.91092145
-0.17135176 0.17773691 0.91085094
-0.18113086 0.18006839 0.91008604
-0.1836008 0.18998019 0.91003245
-0.16881765 0.19009334 0.91057438
-0.15135078 0.19741918 0.9100194
-0.18625532 0.21995284 0.91088307
-0.14167327 0.16545765 0.91159427
-0.17147532 0.18034969 0.91150779
-0.14166509 0.18284111 0.91154164
-0.14172484 0.18788977 0.91192615
-0.16409902 0.19037819 0.91193891
-0.14409743 0.19270994 0.91121048
-0.14666435 0.19530441 0.91172707
-0.14910308 0.19772796 0.91144276
-0.16925649 0.17067923 0.91294146
-0.14434585 0.17562549 0.91278136
-0.14178306 0.1805066 0.91230077
-0.14180313 0.19048069 0.91242993
-0.16165677 0.19291595 0.91218454
-0.15427049 0.19549508 0.91261715
-0.14427887 0.19543953 0.91235781
-0.15672317 0.20042567 0.9124136
-0.18658236 0.21785174 0.91248238
-0.14446726 0.17079285 0.91354918
-0.17940995 0.17585167 0.91395688
-0.18187031 0.18578526 0.91380143
-0.17184249 0.18571575 0.91345954
-0.14204003 0.18581633 0.9139542
-0.18178229 0.18818502 0.91335917
-0.14198487 0.19321513 0.91359925
-0.16429086 0.19557816 0.91300499
-0.14948945 0.19574946 0.91380465
-0.14692822 0.19814548 0.91336733
-0.16949362 0.16842632 0.91422039
-0.16702759 0.18091457 0.91436273
-0.1396933 0.18102109 0.91490108
-0.13961175 0.18590024 0.91436696
-0.16452749 0.18838297 0.91431993
-0.15459326 0.20088981 0.91452658
-0.17969133 0.17862268 0.91539031
-0.16982111 0.19372009 0.9159869
-0.15218221 0.19600946 0.91501838
-0.17486493 0.17629282 0.91624969
-0.1674819 0.17890747 0.91684973
-0.14742377 0.19381759 0.91644788
-0.18496732 0.22138299 0.91680574
-0.17761336 0.17654219 0.91754574
-0.16011363 0.19405928 0.91759074
-0.18520011 0.21665721 0.91795963
-0.14520963 0.18168242 0.91824353
-0.17280462 0.18925945 0.91857392
-0.14519238 0.19167159 0.91813451
-0.18522952 0.21418899 0.91810536
-0.18565443 0.21969703 0.92021149
-0.1458873 0.19007431 0.92252886
