# .PCD v0.7 - Point Cloud Data file format
VERSION 0.7
FIELDS x y z
SIZE 4 4 4
TYPE F F F
COUNT 1 1 1
WIDTH 803
HEIGHT 1
VIEWPOINT 0 0 0 1 0 0 0
POINTS 803
DATA ascii
-0.20406869 0.15775649 0.83169317
-0.2065113 0.15789072 0.8324008
-0.20419982 0.16239491 0.83222759
-0.20889586 0.18295084 0.83286154
-0.2066453 0.18296826 0.83294088
-0.20452905 0.15356803 0.83356941
-0.2089352 0.15800788 0.83301842
-0.20458403 0.16042767 0.83379346
-0.20679617 0.16265276 0.83354902
-0.20696184 0.15368731 0.83421683
-0.20477535 0.15602787 0.83457321
-0.2069568 0.16050522 0.83419651
-0.20929946 0.1628326 0.83447069
-0.20482109 0.16743983 0.83475965
-0.20478101 0.17195702 0.83459628
-0.21161409 0.18333896 0.8346284
-0.20479566 0.18334502 0.834656
-0.20934929 0.18789829 0.83466935
-0.20705302 0.18787916 0.83458436
-0.20719711 0.15613854 0.83516514
-0.21178073 0.15843792 0.83528566
-0.20267941 0.15844269 0.83531082
-0.20957716 0.160771 0.83557785
-0.20507318 0.16536769 0.83578706
-0.20944697 0.17205231 0.83505881
-0.20720752 0.17208286 0.83520705
-0.20957108 0.17898703 0.83555365
-0.2071601 0.17887184 0.83501595
-0.20729873 0.18126917 0.83557469
-0.2072767 0.18580472 0.83548594
-0.21174605 0.18800625 0.83514893
-0.20511116 0.18818475 0.83594185
-0.20975561 0.15406913 0.83628935
-0.20293389 0.15408207 0.83635962
-0.20972992 0.15632957 0.83618695
-0.21212229 0.16325451 0.83663285
-0.20288573 0.16316247 0.83616114
-0.20761877 0.16558093 0.83686477
-0.20980072 0.16778274 0.83646917
-0.20751466 0.16777791 0.83644509
-0.20765187 0.17017037 0.83699816
-0.20524247 0.1700644 0.83647698
-0.21437451 0.17235386 0.8365224
-0.21206039 0.17232633 0.83638871
-0.20985064 0.17466453 0.83666819
-0.20531677 0.17468782 0.83677977
-0.21216294 0.17925255 0.83679318
-0.20516166 0.17911427 0.83614767
-0.20972061 0.18139394 0.83614981
-0.20970853 0.18594165 0.83610165
-0.20530258 0.18607961 0.83672196
-0.21216817 0.1929431 0.83681381
-0.20749332 0.19283825 0.83635908
-0.2078869 0.14980604 0.83794552
-0.20557542 0.14978608 0.83783394
-0.20330386 0.1497951 0.83788437
-0.20785893 0.15206967 0.83783281
-0.20555075 0.15205163 0.83773339
-0.21236813 0.15431103 0.83760244
-0.21246557 0.15666606 0.83798677
-0.21455508 0.15880616 0.83722699
-0.21241795 0.16119836 0.83779895
-0.20317657 0.16111386 0.83735979
-0.21451342 0.16790214 0.83706445
-0.21222544 0.16789716 0.83703965
-0.21013577 0.17033441 0.83780503
-0.20765539 0.17473638 0.83701235
-0.20560738 0.17721926 0.83796424
-0.21468101 0.17945075 0.83771843
-0.21239203 0.18172953 0.83769673
-0.20542207 0.18162371 0.83720899
-0.21451859 0.1838785 0.83708459
-0.21225379 0.18617514 0.83715153
-0.21450469 0.1884298 0.83703035
-0.20784949 0.19088556 0.83779472
-0.21474645 0.19321053 0.83797371
-0.21008132 0.19312158 0.83758795
-0.20539132 0.19300531 0.83708364
-0.21228753 0.19761623 0.83728456
-0.20773165 0.19762453 0.83731973
-0.20333633 0.15667193 0.83801818
-0.21484004 0.16358744 0.83833897
-0.21265812 0.16595319 0.83874619
-0.2102481 0.16585559 0.8382529
-0.20351963 0.16824499 0.83877367
-0.21490672 0.17049587 0.83859915
-0.21258043 0.17046346 0.83843976
-0.21476488 0.17495209 0.83804566
-0.21255679 0.1750149 0.83834654
-0.20793699 0.17725798 0.8381474
-0.21499352 0.1865724 0.83893788
-0.21254608 0.19100167 0.83830428
-0.21031027 0.19104643 0.83850074
-0.20577481 0.19107966 0.83864659
-0.21263745 0.19565591 0.83866471
-0.21027085 0.1978662 0.83834362
-0.21066253 0.15015638 0.8399052
-0.20366165 0.15234669 0.83935899
-0.21520036 0.16157278 0.83974499
-0.20375054 0.16614692 0.83972532
-0.20378765 0.17304529 0.83987826
-0.21059337 0.17757143 0.83962947
-0.21514131 0.18212388 0.83951455
-0.21526243 0.19138509 0.83998716
-0.20820798 0.19579007 0.83923972
-0.20593809 0.19809476 0.83931202
-0.20860064 0.14802842 0.84082246
-0.20628572 0.14801194 0.84072882
-0.20400727 0.14802153 0.84078336
-0.21313341 0.15028432 0.84062082
-0.21321051 0.1526309 0.84092486
-0.21081498 0.15255615 0.84051305
-0.21546058 0.1571846 0.84076041
-0.21533667 0.16625604 0.84027684
-0.20400971 0.17094199 0.84079343
-0.21534143 0.17771228 0.84029543
-0.21321817 0.17785178 0.84095508
-0.20404793 0.1847278 0.84095097
-0.20402317 0.19387347 0.84084892
-0.20614026 0.19599916 0.84013599
-0.21551429 0.19619372 0.84096998
-0.21082346 0.196095 0.84054685
-0.21577415 0.15511824 0.84198397
-0.20411251 0.18020023 0.84121716
-0.20414351 0.18940108 0.84134489
-0.20659952 0.1459419 0.8420077
-0.20431726 0.14595112 0.84206092
-0.20903789 0.14604194 0.84258485
-0.21132864 0.14833447 0.84256095
-0.20444749 0.1759024 0.84259772
-0.20440935 0.17816593 0.84244049
-0.20444642 0.18738532 0.84259325
-0.21583761 0.19878384 0.84223163
-0.20443948 0.19886245 0.84256464
-0.20231198 0.15075791 0.84326988
-0.20247968 0.16008496 0.84396887
-0.21852382 0.18074045 0.84373903
-0.20456405 0.18289696 0.84307808
-0.21857652 0.18998584 0.84394252
-0.20463525 0.1921562 0.84337151
-0.20462091 0.19674021 0.84331244
-0.21190743 0.14643776 0.8448686
-0.20959814 0.20170313 0.84484315
-0.21429962 0.1488027 0.84522045
-0.20275806 0.15569769 0.84512925
-0.20292337 0.1650469 0.84581828
-0.21889053 0.17643625 0.845155
-0.21908246 0.17889673 0.84589601
-0.21900226 0.18574603 0.84558636
-0.21212 0.20191152 0.84571606
-0.20305602 0.14900528 0.84637117
-0.21703388 0.15371534 0.84689963
-0.20314431 0.16291852 0.84673923
-0.20761907 0.20201823 0.84616297
-0.20327318 0.14685509 0.84727633
-0.20326722 0.15377919 0.84725147
-0.20334756 0.15846075 0.84758639
-0.20345272 0.1701006 0.84802473
-0.21544442 0.14728136 0.84973568
-0.20376351 0.17499065 0.84932011
-0.20894325 0.14527629 0.8515597
-0.21156214 0.14548101 0.8527596
-0.20677166 0.1453815 0.85217637
-0.20276414 0.15283127 0.85486734
-0.20085976 0.13447453 0.85668367
-0.21009004 0.14373969 0.85623354
-0.20327555 0.13452786 0.85702348
-0.19880828 0.1346667 0.85790795
-0.207993 0.1439036 0.85720992
-0.21513802 0.14633217 0.85774887
-0.20582856 0.14636266 0.85792762
-0.20347428 0.15570495 0.8578614
-0.20596448 0.13475871 0.8584941
-0.20607466 0.13717216 0.85895336
-0.20369701 0.13714774 0.85880041
-0.21070324 0.13947769 0.85873264
-0.20361181 0.13943034 0.85844117
-0.21292299 0.14407733 0.85824484
-0.20368424 0.14884318 0.85874659
-0.20370468 0.15119916 0.85883278
-0.20155145 0.13728084 0.8596338
-0.21568564 0.13967252 0.85993218
-0.21315584 0.13955091 0.85918343
-0.20852794 0.13958845 0.85941458
-0.20614679 0.13956238 0.85925406
-0.20627704 0.14433789 0.85979694
-0.2201799 0.1489176 0.85917592
-0.20376103 0.16060774 0.8590703
-0.19715707 0.1351378 0.8609091
-0.2016484 0.13969122 0.86004728
-0.21619207 0.13530138 0.86195129
-0.20913334 0.13529485 0.86190969
-0.21607976 0.13757943 0.86150354
-0.21364419 0.13752326 0.86115187
-0.21135966 0.13756415 0.86140794
-0.20894367 0.13751945 0.86112797
-0.21125995 0.14219317 0.86100155
-0.20913151 0.1423419 0.86190212
-0.22104652 0.13539656 0.86255759
-0.21864022 0.13536245 0.86234027
-0.21392609 0.13535427 0.86228812
-0.2115252 0.135322 0.8620826
-0.19977507 0.13767146 0.86207986
-0.21866891 0.14008203 0.8624534
-0.21387777 0.14237347 0.86209333
-0.20698528 0.14248174 0.86274898
-0.21630739 0.14477675 0.86241108
-0.21870226 0.14715721 0.86258495
-0.20454226 0.17062618 0.86236405
-0.20464101 0.17541216 0.86278039
-0.20465496 0.17777608 0.86283922
-0.2188677 0.13785632 0.86323744
-0.22117475 0.14018022 0.86305797
-0.20005591 0.14021818 0.86329174
-0.22389267 0.13569655 0.86446869
-0.19572768 0.13577414 0.86496294
-0.22142933 0.13798632 0.8640514
-0.21682623 0.14276758 0.86447972
-0.20498098 0.14272365 0.86421376
-0.20515391 0.14520174 0.86494279
-0.20272769 0.1592941 0.86465055
-0.20494415 0.18038256 0.86405843
-0.20507897 0.18757175 0.86462688
-0.2289589 0.13590634 0.86580515
-0.22647764 0.13583362 0.86534196
-0.19811934 0.13815552 0.86511099
-0.22423849 0.14062622 0.8658039
-0.2028735 0.14289849 0.8652724
-0.22413118 0.14527676 0.86538959
-0.2218636 0.14533658 0.86574596
-0.21941957 0.14528087 0.86541408
-0.20290951 0.14528288 0.86542606
-0.20052414 0.14526378 0.86531228
-0.20529136 0.14765832 0.86552233
-0.20286201 0.15468271 0.86522341
-0.20303054 0.16425291 0.86594224
-0.23156793 0.13605262 0.86673707
-0.22451003 0.13843361 0.86685234
-0.22671939 0.14070123 0.86626571
-0.19832471 0.14065933 0.86600775
-0.22672442 0.14542705 0.86628491
-0.19832776 0.14538276 0.8660211
-0.2031572 0.16907915 0.86648244
-0.19386674 0.13612297 0.86718524
-0.19156079 0.13616408 0.8674472
-0.18925542 0.13620666 0.8677184
-0.22928582 0.14082721 0.86704135
-0.19640289 0.14097428 0.86794686
-0.22478558 0.14333512 0.86791629
-0.2221857 0.14318427 0.86700284
-0.21984337 0.14319792 0.86708558
-0.20102187 0.14325978 0.86746007
-0.196412 0.14571279 0.86798704
-0.22223437 0.1479433 0.86719275
-0.20097421 0.15031782 0.86725444
-0.1986528 0.15035005 0.8674404
-0.2033402 0.15741135 0.86726296
-0.20339459 0.17400603 0.86749494
-0.2297551 0.1387472 0.86881596
-0.22718357 0.13862316 0.86803925
-0.23205471 0.14107372 0.868559
-0.19414967 0.14105614 0.86845076
-0.22739682 0.14348999 0.86885405
-0.1989678 0.1434837 0.8688159
-0.22957322 0.1457365 0.86812818
-0.20127153 0.14817271 0.86853749
-0.19891515 0.14818099 0.868586
-0.22503844 0.15060174 0.86889255
-0.19642483 0.15045464 0.86804378
-0.22506262 0.15298666 0.86898595
-0.20115951 0.15518877 0.86805403
-0.19896352 0.15532163 0.86879718
-0.20359258 0.16234064 0.86833936
-0.20372547 0.16718361 0.8689062
-0.20373856 0.1837749 0.86896199
-0.19665575 0.13878685 0.86906427
-0.19192441 0.14116058 0.86909378
-0.18960987 0.14120114 0.86934352
-0.22999614 0.14363423 0.86972743
-0.19440205 0.14598018 0.86957973
-0.22520828 0.14834516 0.86954832
-0.20385402 0.15069914 0.86945444
-0.19448228 0.15078306 0.86993861
-0.20143569 0.16014068 0.86924583
-0.20159826 0.1650126 0.86994737
-0.20616437 0.20514964 0.86920297
-0.23491462 0.13662496 0.87038326
-0.1875256 0.13666977 0.87066871
-0.23252156 0.13898522 0.87030643
-0.19470887 0.13908833 0.87095213
-0.20399567 0.14843221 0.8700586
-0.19692756 0.14846751 0.87026548
-0.19699451 0.15563701 0.8705613
-0.20175008 0.1580175 0.87060255
-0.19943798 0.16043971 0.87086898
-0.20410207 0.17223839 0.87051237
-0.20412798 0.17700663 0.87062293
-0.20400055 0.17926782 0.8700794
-0.20414785 0.18651749 0.87070763
-0.20419711 0.19131047 0.87091774
-0.20404567 0.19591303 0.87027186
-0.2041283 0.20073871 0.87062424
-0.19017242 0.13924335 0.87192279
-0.19711846 0.14386241 0.87110907
-0.19489835 0.14397646 0.87179971
-0.2329018 0.14634109 0.87172961
-0.19246756 0.14631148 0.8715533
-0.22803612 0.14864345 0.87129676
-0.22804338 0.15102327 0.87132448
-0.20185959 0.15335445 0.87107509
-0.19954446 0.15340002 0.87133396
-0.19968912 0.15826491 0.87196559
-0.20206967 0.16302158 0.87198162
-0.19960347 0.16532448 0.87159163
-0.20186748 0.16998197 0.87110913
-0.20202844 0.1748703 0.8718037
-0.20424983 0.18186148 0.87114263
-0.1925955 0.13927686 0.87213266
-0.18801966 0.14178896 0.87296259
-0.23317605 0.14413442 0.87275612
-0.1902575 0.146439 0.8723129
-0.19503598 0.14883427 0.8724153
-0.23079 0.15126678 0.87272942
-0.1926892 0.15123689 0.87255698
-0.20467299 0.15368408 0.87294739
-0.19739966 0.15357921 0.87235177
-0.19515862 0.15606654 0.87296391
-0.19740874 0.16072027 0.87239188
-0.23341949 0.13475898 0.8736673
-0.20236889 0.13469814 0.87327284
-0.19048095 0.13470809 0.87333733
-0.18813825 0.13473521 0.87351316
-0.23587582 0.13956621 0.87394458
-0.23567384 0.14182691 0.87319624
-0.19289173 0.14425299 0.87347412
-0.19056243 0.1442921 0.87371093
-0.23094629 0.14898868 0.8733204
-0.19533846 0.15382861 0.87376833
-0.22855523 0.15612309 0.87328017
-0.19775818 0.15862256 0.87393618
-0.20235911 0.16801566 0.87323064
-0.20252624 0.18006569 0.87395185
-0.20236748 0.1846853 0.87326676
-0.204788 0.18948321 0.87343794
-0.20471662 0.19417721 0.87313348
-0.20473731 0.19895737 0.87322176
-0.23607895 0.13491784 0.87469721
-0.23122318 0.13486698 0.87436748
-0.20024335 0.1348698 0.87438571
-0.23852836 0.13733962 0.8749361
-0.18595345 0.13726114 0.87443608
-0.19322713 0.14927401 0.87499291
-0.19065121 0.15150745 0.87411797
-0.20017268 0.16341335 0.87407714
-0.1978135 0.16581556 0.87418061
-0.20038344 0.1683556 0.87499744
-0.2001835 0.17057034 0.87412435
-0.20269734 0.17306501 0.87469018
-0.20030376 0.17544113 0.87464952
-0.2003531 0.18025382 0.87486494
-0.21454565 0.21352486 0.87439263
-0.19333981 0.13504216 0.87550318
-0.18617932 0.1350414 0.87549824
-0.18384056 0.13507645 0.87572551
-0.18848191 0.13975213 0.87510878
-0.1885574 0.1469672 0.87545931
-0.23638906 0.14703216 0.87584621
-0.190981 0.1493827 0.87563002
-0.23386525 0.15171851 0.87533569
-0.22912002 0.15412258 0.87543815
-0.23155755 0.15654351 0.87563187
-0.19327396 0.1564672 0.87520498
-0.22920403 0.15895346 0.87575918
-0.19563027 0.16121432 0.87507361
-0.19323583 0.16120672 0.87503231
-0.19819145 0.16374496 0.87585086
-0.19567662 0.16602428 0.87528098
-0.19810179 0.17082991 0.8754546
-0.20280258 0.17792588 0.87514436
-0.20293464 0.18281585 0.87571418
-0.20059688 0.18524843 0.87592947
-0.20288904 0.18754782 0.87551743
-0.2053618 0.20433927 0.87588525
-0.20529585 0.20666039 0.87560391
-0.2125292 0.21389422 0.87590516
-0.18405207 0.13762169 0.87673301
-0.18630572 0.14229734 0.87609261
-0.23662177 0.14478712 0.87670839
-0.18644319 0.14718205 0.87673908
-0.23424166 0.14957285 0.87674457
-0.18874741 0.15189284 0.87634146
-0.2316799 0.15423813 0.87609458
-0.19353499 0.15428962 0.876387
-0.2342786 0.15676716 0.87688285
-0.19119541 0.15671892 0.87661308
-0.19601405 0.15914062 0.87679034
-0.19353446 0.16623363 0.87638462
-0.19584349 0.17094168 0.87602741
-0.19832955 0.17580451 0.87646115
-0.20069775 0.17817505 0.87636989
-0.19842377 0.18066849 0.87687755
-0.20305614 0.19725622 0.87623852
-0.23931232 0.13539824 0.87781173
-0.22954933 0.13528515 0.87707853
-0.19623742 0.13539481 0.8777895
-0.18191068 0.13541681 0.87793207
-0.18905894 0.14496541 0.87778795
-0.18902268 0.14972211 0.87761956
-0.18664551 0.15212665 0.87769049
-0.19138363 0.15448135 0.87747604
-0.19374733 0.15924193 0.87734854
-0.191293 0.16158038 0.87706053
-0.19616717 0.16404864 0.87747526
-0.19377282 0.16404654 0.877464
-0.19133282 0.16639645 0.8772431
-0.19847365 0.16875976 0.87709796
-0.19621992 0.16887775 0.87771124
-0.2009761 0.17363787 0.87758541
-0.20087023 0.18310997 0.87712306
-0.19867137 0.18568034 0.87797171
-0.20101333 0.18802561 0.87774789
-0.20330808 0.19271806 0.87732565
-0.20342891 0.20240408 0.87784708
-0.20808078 0.20944794 0.87728268
-0.20816702 0.21192707 0.87764627
-0.22007932 0.21427138 0.87744963
-0.18204314 0.13791025 0.87857133
-0.18676999 0.14025791 0.87827581
-0.23938568 0.14262027 0.87808079
-0.18684253 0.14989227 0.87861693
-0.23713742 0.15228759 0.87861896
-0.2346919 0.15464926 0.87842977
-0.18913154 0.15698923 0.87812501
-0.19170107 0.15952924 0.87893146
-0.18923303 0.1618633 0.87859625
-0.19880129 0.17861745 0.87854588
-0.20366247 0.19544962 0.87885499
-0.20116885 0.1977489 0.87842703
-0.20365639 0.20742151 0.87882876
-0.24219413 0.13806981 0.87958777
-0.23965456 0.14038427 0.87906706
-0.18464506 0.14286016 0.87955773
-0.18695743 0.14519155 0.87915725
-0.18453339 0.14756592 0.87902576
-0.2373257 0.15001163 0.87931657
-0.18932579 0.15475439 0.87902689
-0.1871338 0.15492335 0.87998664
-0.19180907 0.16441347 0.87942666
-0.2325141 0.16677696 0.87924904
-0.18934925 0.16675547 0.87913579
-0.19421528 0.17161298 0.87946761
-0.198976 0.17398065 0.87931794
-0.19673158 0.1741156 0.87999994
-0.1965536 0.17635465 0.8792038
-0.19905704 0.18364295 0.8796761
-0.20377408 0.19076286 0.8793366
-0.19896252 0.19074589 0.87925839
-0.20152728 0.19330381 0.87999219
-0.20374526 0.20032226 0.87921226
-0.20628667 0.21245435 0.87982988
-0.18006635 0.13583076 0.88061583
-0.18487205 0.1406353 0.88063902
-0.18243439 0.14780663 0.88045961
-0.1849294 0.15028384 0.88091218
-0.18484049 0.15261166 0.88048863
-0.18714292 0.15732971 0.8800295
-0.18953779 0.1597252 0.8800112
-0.23516449 0.16215852 0.88019866
-0.23285362 0.16222011 0.88053298
-0.2352948 0.16704959 0.8806864
-0.19440782 0.16938344 0.88033944
-0.19212024 0.16948232 0.88085335
-0.19199483 0.17177118 0.88027835
-0.19691524 0.18628304 0.88082147
-0.19918306 0.18855795 0.88023299
-0.20162731 0.19579966 0.88042897
-0.2017168 0.2006885 0.88081968
-0.20156144 0.20293306 0.88014132
-0.2040989 0.20547144 0.88073826
-0.20168707 0.20786078 0.88068992
-0.21112986 0.21490011 0.88002431
-0.21853854 0.21751018 0.88087988
-0.21609253 0.21746501 0.88069701
-0.20650369 0.21747945 0.88075548
-0.18028127 0.1335896 0.8816669
-0.18019235 0.13832791 0.88123202
-0.18272971 0.14083426 0.88188481
-0.1825656 0.14310949 0.88109279
-0.1850114 0.14554588 0.88130283
-0.18271388 0.14562939 0.88180846
-0.24021608 0.14791863 0.88112676
-0.23798187 0.1576369 0.88174772
-0.23549362 0.15998282 0.88143051
-0.23307894 0.15997456 0.88138503
-0.18747105 0.16241163 0.88157254
-0.23319705 0.16486309 0.88183165
-0.189831 0.16477726 0.88137257
-0.18747641 0.16722246 0.88159776
-0.19466972 0.17682034 0.88152546
-0.20180967 0.1911726 0.88122529
-0.19703491 0.19120111 0.88135672
-0.19946404 0.19362946 0.88147467
-0.19946975 0.19844066 0.88149995
-0.20656952 0.21034411 0.88103628
-0.20429558 0.21047558 0.88158697
-0.20417652 0.21275458 0.88107318
-0.22340171 0.21516769 0.88112009
-0.21379049 0.21756536 0.8811034
-0.21155055 0.21773188 0.88177776
-0.20909657 0.21767943 0.88156533
-0.20423345 0.21761858 0.88131893
-0.1827663 0.13364938 0.88206142
-0.24060303 0.14575122 0.88254613
-0.24071664 0.1530405 0.88296282
-0.2383033 0.15544306 0.88293868
-0.18536067 0.15544797 0.88296658
-0.18770033 0.16020429 0.88265073
-0.23586325 0.16504675 0.88281405
-0.19001633 0.17215261 0.88223302
-0.19247098 0.17700808 0.88246149
-0.19735762 0.18429516 0.88280028
-0.19731508 0.19387884 0.88260996
-0.19972539 0.19628906 0.88262963
-0.20201527 0.2057945 0.88212299
-0.19971097 0.20830356 0.88256592
-0.19728768 0.20828503 0.88248742
-0.2021092 0.21070148 0.88253319
-0.20207198 0.21306787 0.88237065
-0.20923091 0.21541473 0.88213176
-0.20696044 0.21555439 0.8827036
-0.22138925 0.21795276 0.88267231
-0.20690776 0.222716 0.88247889
-0.18542446 0.13383257 0.88327044
-0.24333495 0.14353798 0.88373095
-0.18065991 0.1435035 0.88351864
-0.18069451 0.14834855 0.88368779
-0.18310085 0.15075535 0.88367599
-0.18537417 0.1578663 0.88303089
-0.23832528 0.1626783 0.8830201
-0.1878777 0.16517214 0.88348478
-0.19024128 0.16994873 0.88327742
-0.23365867 0.17000641 0.88357723
-0.1950178 0.1747293 0.88310164
-0.19274795 0.17485388 0.88373131
-0.1976081 0.17971019 0.88392067
-0.19742957 0.18195508 0.88312209
-0.19746523 0.189211 0.88328159
-0.19499913 0.1915613 0.88301706
-0.2000317 0.20140931 0.88398331
-0.19987525 0.2036595 0.88329196
-0.20001133 0.21102621 0.88389331
-0.19761695 0.21104218 0.88396025
-0.19989343 0.21330974 0.88337225
-0.20464039 0.21564506 0.88307494
-0.20231774 0.21814327 0.88344383
-0.2072335 0.22065735 0.88386822
-0.20479572 0.22062664 0.88374519
-0.21915482 0.22293939 0.88336396
-0.21677889 0.22297227 0.88349432
-0.21195997 0.22296977 0.88348436
-0.20954941 0.22296728 0.88347453
-0.20225677 0.22289234 0.88317758
-0.22167085 0.22304818 0.88379508
-0.20476936 0.22300689 0.88363147
-0.17854913 0.13409364 0.88499343
-0.18081671 0.14121762 0.88428545
-0.18095309 0.14614862 0.88495243
-0.24105014 0.15084238 0.88418615
-0.18318549 0.15323491 0.88408452
-0.23882858 0.1606098 0.88488489
-0.1856809 0.16294947 0.88449198
-0.18571183 0.16779938 0.88463932
-0.23631315 0.17018357 0.88449794
-0.18809222 0.1725937 0.88449353
-0.19046691 0.17738189 0.88432503
-0.19774406 0.19912252 0.88452882
-0.19770068 0.20389995 0.8843348
-0.20024735 0.20645083 0.88493633
-0.19763412 0.21347027 0.88403708
-0.20258923 0.21602464 0.88462931
-0.22422707 0.2183733 0.88437539
-0.21707459 0.22086486 0.88469946
-0.20256676 0.22082284 0.88453114
-0.2243726 0.22333948 0.88494933
-0.2145378 0.22314616 0.88418329
-0.18836634 0.13421321 0.8857826
-0.17863482 0.13898502 0.88541824
-0.18597116 0.16078945 0.88587463
-0.23886818 0.16787378 0.88503158
-0.18833196 0.17039964 0.88562095
-0.18829565 0.17760757 0.88545018
-0.19548537 0.18238711 0.88521892
-0.19310902 0.1824217 0.88538682
-0.19070382 0.18242957 0.88542497
-0.18839051 0.18252666 0.88589621
-0.19550873 0.18723541 0.88532472
-0.19806083 0.19702655 0.8859458
-0.1980487 0.20667367 0.8858915
-0.22688279 0.21619613 0.88533157
-0.22702225 0.21874377 0.88587576
-0.21959588 0.22097529 0.88514179
-0.21477693 0.22098204 0.88516885
-0.21253803 0.22116303 0.88589382
-0.21002737 0.22106214 0.88548964
-0.17892905 0.13679646 0.88687658
-0.18135874 0.1537292 0.88693631
-0.24166715 0.15847744 0.8864494
-0.18361171 0.1584224 0.88614148
-0.23913319 0.16564491 0.88601351
-0.18616617 0.16579261 0.88680357
-0.19084688 0.1753204 0.88608915
-0.19568014 0.18015347 0.88610095
-0.19335912 0.18024142 0.8865335
-0.1932912 0.18742521 0.88622212
-0.19572459 0.18985805 0.88630217
-0.19573319 0.19469845 0.88634115
-0.19827406 0.20207375 0.88689959
-0.19570892 0.20916866 0.88623124
-0.19569646 0.21398647 0.8861748
-0.20066126 0.21896346 0.88676548
-0.22488417 0.22143096 0.886967
-0.222422 0.22138673 0.88678986
-0.2296928 0.22382256 0.88686347
-0.227108 0.22365776 0.88621044
-0.20054863 0.22367223 0.88626778
-0.17897402 0.14408509 0.88709944
-0.1813958 0.15134247 0.88711751
-0.24198492 0.15626633 0.88761497
-0.18390356 0.1562549 0.88755006
-0.24207266 0.1635841 0.88793677
-0.18393457 0.16354042 0.88769966
-0.18630572 0.17317417 0.88746828
-0.18883075 0.17569184 0.88796645
-0.19107345 0.18761957 0.88714111
-0.19355007 0.19251408 0.88740897
-0.19124386 0.19262762 0.88793236
-0.19595464 0.19975623 0.88734388
-0.19591498 0.20455235 0.88716435
-0.19597743 0.21187468 0.88744718
-0.20072547 0.21661557 0.8870492
-0.22990543 0.21919037 0.8876844
-0.22753733 0.22166032 0.88788575
-0.20093334 0.22168081 0.88796782
-0.19835211 0.22391979 0.88724869
-0.17676316 0.13457051 0.88814074
-0.17916758 0.14182024 0.8880589
-0.18414269 0.1685704 0.88870412
-0.2397196 0.17089322 0.88818622
-0.18654899 0.17097805 0.88862711
-0.23967086 0.17327903 0.88800561
-0.19132107 0.18059871 0.88829088
-0.18902294 0.1807165 0.88887024
-0.18657675 0.18311657 0.88875937
-0.19616576 0.18544328 0.88829994
-0.19379663 0.18549328 0.88853943
-0.19627663 0.19766176 0.88880205
-0.193877 0.20010832 0.88890791
-0.19382113 0.20973995 0.88865179
-0.23266217 0.21466199 0.88897228
-0.19385198 0.21461874 0.88879317
-0.1987417 0.2195131 0.88899142
-0.17953965 0.1469662 0.88990307
-0.17945798 0.14932398 0.88949823
-0.18181698 0.15896514 0.88917732
-0.18426108 0.16140671 0.88927549
-0.19149563 0.18561056 0.88910127
-0.189132 0.18809371 0.88938308
-0.19406804 0.1954547 0.88978386
-0.19654118 0.20278014 0.88999993
-0.19410494 0.20519532 0.88995302
-0.19644761 0.2075333 0.88957626
-0.23047163 0.21730454 0.88987058
-0.19886903 0.21722895 0.889561
-0.23025185 0.22194399 0.88902199
-0.17719367 0.13975191 0.89030379
-0.18213187 0.15681249 0.89071727
-0.18447918 0.16645154 0.89032805
-0.18694323 0.1786215 0.89050508
-0.18937683 0.18590973 0.89053434
-0.19411902 0.19065394 0.89001757
-0.18931702 0.19313107 0.89025307
-0.19171916 0.19553274 0.89013916
-0.1941548 0.19796856 0.8901816
-0.19423833 0.21261896 0.89056462
-0.19672675 0.21996963 0.89084029
-0.19899285 0.2222168 0.89011478
-0.17742357 0.13750325 0.89145887
-0.17750107 0.14485642 0.89184833
-0.1846676 0.17390966 0.89123744
-0.19198535 0.19094473 0.89137506
-0.19199614 0.20553476 0.89142513
-0.19192572 0.21517533 0.8910982
-0.19680603 0.21762902 0.89119929
-0.23330614 0.22011594 0.89143282
-0.17514172 0.13518761 0.89221346
-0.17767382 0.142564 0.89271623
-0.18014786 0.15233198 0.89291769
-0.17998332 0.15462457 0.89210212
-0.18256649 0.16448794 0.89284283
-0.18492846 0.17172253 0.89249641
-0.18742312 0.17664644 0.89279109
-0.18742387 0.18151437 0.89279461
-0.18746121 0.18641873 0.89297247
-0.18980828 0.19606523 0.89256322
-0.18979125 0.1984804 0.89248312
-0.1921865 0.20087397 0.89230901
-0.19475521 0.20344876 0.89293444
-0.19457012 0.20811878 0.89208585
-0.19218591 0.21060246 0.89230621
-0.18987969 0.21561018 0.89289898
-0.19456063 0.22026643 0.89204228
-0.18276763 0.16223273 0.89382643
-0.18271689 0.16949494 0.89357829
-0.18518515 0.18414178 0.89373523
-0.18748143 0.18887319 0.89306879
-0.18998796 0.19138025 0.89340812
-0.19237751 0.19863889 0.89319581
-0.19249424 0.20850417 0.89373779
-0.19007048 0.21095414 0.89379621
-0.19493908 0.21825859 0.89377743
-0.19236101 0.22053236 0.89311922
-0.19723032 0.22296721 0.89312065
-0.18040897 0.15986522 0.89421195
-0.1853413 0.17942058 0.89448881
-0.18773797 0.19400702 0.8942908
-0.19256973 0.21346021 0.89408827
-0.23399261 0.21832655 0.89405572
-0.19266005 0.21843691 0.89450765
-0.17817648 0.14784791 0.89524186
-0.17813462 0.15025288 0.89503157
-0.18069044 0.15767334 0.89560705
-0.18320815 0.16750835 0.89598083
-0.18313034 0.174761 0.89560032
-0.18561274 0.17724153 0.8957988
-0.18799557 0.1991553 0.89551789
-0.19046128 0.20162246 0.89563394
-0.19279939 0.20395461 0.8951546
-0.19050832 0.20655617 0.89585513
-0.19049793 0.21387039 0.89580631
-0.19037031 0.22104765 0.89520609
-0.17590915 0.13822266 0.89612293
-0.17593029 0.14068225 0.89623064
-0.18328185 0.1724623 0.89634126
-0.18579218 0.18230121 0.8966648
-0.18577421 0.18717143 0.89657807
-0.18825218 0.19698277 0.89674026
-0.19066358 0.21894425 0.89658523
-0.17856754 0.15550934 0.89720678
-0.18114628 0.16541345 0.89786649
-0.18586545 0.1897085 0.89701843
-0.18837315 0.19221748 0.89731652
-0.19085133 0.20448174 0.89746815
-0.19093227 0.20946322 0.89784873
-0.23729312 0.22156984 0.89732087
-0.17885564 0.15331066 0.89865434
-0.18126796 0.16307546 0.89846957
-0.18868753 0.22193855 0.89881408
-0.1766606 0.14617249 0.89995104
-0.1815481 0.1706861 0.89985812
-0.18397222 0.1780169 0.89971757
-0.18874414 0.20239908 0.89908373
-0.18887967 0.21971202 0.89972931
-0.17668507 0.14373927 0.90007561
-0.17921363 0.16098098 0.90045303
-0.18171886 0.16839145 0.90070444
-0.18667582 0.20035878 0.90092939
-0.18908805 0.2076783 0.90072191
-0.18901357 0.21250501 0.90036714
-0.23813884 0.21990485 0.90051895
-0.17933948 0.15863781 0.90108532
-0.18437459 0.18086408 0.9016853
-0.18440595 0.18581139 0.90183866
-0.1868424 0.19316362 0.90173334
-0.1867093 0.19548225 0.90109104
-0.18922742 0.21028841 0.90138578
-0.18211482 0.17367946 0.90266716
-0.18213919 0.17616352 0.90278786
-0.18460894 0.18847689 0.90283138
-0.18459725 0.19092579 0.90277427
-0.18945266 0.20561881 0.90245879
-0.18948628 0.21549688 0.90261894
-0.1893592 0.21781111 0.9020136
-0.18481672 0.18376155 0.90384758
-0.18717216 0.19842918 0.90332484
-0.18732767 0.20352277 0.90407538
-0.1826956 0.17917006 0.90554577
-0.1852307 0.19651948 0.90587217
-0.18756673 0.21365254 0.90522909
-0.18539254 0.19421975 0.9066636
-0.18530691 0.20154087 0.90624481
-0.18779655 0.20897326 0.90633827
-0.18785633 0.21151109 0.90662676
-0.188104 0.20684081 0.90782213
-0.18808021 0.21671169 0.90770721
-0.18813093 0.21924508 0.90795207
-0.18575642 0.19955349 0.90844315
-0.18589549 0.20465913 0.90912324
-0.1862402 0.21000409 0.9108091
-0.18627211 0.21500635 0.91096514
-0.18645498 0.20776069 0.91185945
-0.18656823 0.21286108 0.91241336
-0.18664092 0.21792011 0.91276878
-0.18569043 0.2172308 0.92038989
