# .PCD v0.7 - Point Cloud Data file format
VERSION 0.7
FIELDS x y z
SIZE 4 4 4
TYPE F F F
COUNT 1 1 1
WIDTH 1489
HEIGHT 1
VIEWPOINT 0 0 0 1 0 0 0
POINTS 1489
DATA ascii
-10.181223 -90.332245 -15.445581
-10.106985 -90.103294 -14.623787
-10.057901 -89.845764 -13.793581
-10.012506 -89.58316 -12.959717
-9.9661961 -89.320534 -12.123296
-9.9444485 -89.029694 -11.277782
-9.9311428 -88.728348 -10.426956
-9.9193192 -88.424141 -9.5724754
-9.9369793 -88.085922 -8.7066822
-9.960947 -87.739334 -7.8354721
-9.9928265 -87.382492 -6.9582567
-10.05929 -86.985519 -6.0670915
-10.12608 -86.586594 -5.1715374
-10.231802 -86.142288 -4.2598171
-10.349979 -85.682175 -3.339421
-10.498203 -85.186287 -2.4044876
-10.67684 -84.654007 -1.4543567
-10.893534 -84.076447 -0.48591471
-11.146406 -83.45546 0.50099611
-11.464468 -82.757774 1.5169215
-11.827711 -82.005722 2.5562263
-12.293093 -81.133942 3.6398864
-12.87565 -80.124435 4.7753367
-13.626879 -78.917313 5.9836879
-14.671026 -77.368546 7.3144517
-16.539488 -74.863991 8.9745083
-12.995001 -93.39753 -34.554405
-12.588648 -93.534439 -33.810547
-12.346502 -93.498215 -33.051292
-12.148336 -93.415268 -32.28693
-11.958334 -93.323334 -31.520817
-11.777979 -93.22081 -30.752621
-11.596628 -93.118942 -29.983501
-11.415796 -93.016129 -29.213278
-11.235476 -92.912384 -28.441919
-11.073118 -92.788986 -27.666994
-10.909733 -92.666229 -26.89093
-10.746096 -92.543259 -26.113649
-10.58296 -92.419281 -25.335022
-10.436966 -92.276306 -24.552311
-10.29299 -92.1306 -23.767788
-10.148739 -91.984634 -22.981808
-10.003462 -91.839203 -22.194483
-9.8791294 -91.670425 -21.401775
-9.7560215 -91.499649 -20.607059
-9.6326599 -91.328491 -19.810623
-9.5143223 -91.151154 -19.011354
-9.4139156 -90.953461 -18.206511
-9.313261 -90.755257 -17.399624
-9.2115917 -90.557404 -16.590885
-9.1278954 -90.338928 -15.77599
-9.0523376 -90.110596 -14.956919
-8.9765568 -89.881607 -14.135456
-8.9112186 -89.640121 -13.309032
-8.8639984 -89.377533 -12.475534
-8.8166199 -89.114075 -11.639273
-8.7759609 -88.842056 -10.798429
-8.7604542 -88.540817 -9.9479685
-8.7448902 -88.238434 -9.0942774
-8.7431183 -87.91935 -8.2335043
-8.7644634 -87.57296 -7.3626995
-8.7859097 -87.225067 -6.4881344
-8.836874 -86.842407 -5.601018
-8.9013176 -86.442947 -4.7056866
-8.9800968 -86.025589 -3.801563
-9.094492 -85.56604 -2.8816552
-9.2118931 -85.101212 -1.9557776
-9.3851719 -84.570694 -1.0064888
-9.5651188 -84.03038 -0.049153805
-9.8123817 -83.410706 0.93701982
-10.085556 -82.758713 1.938993
-10.425432 -82.027283 2.9717078
-10.84799 -81.197472 4.0422235
-11.356005 -80.265472 5.1531749
-12.005693 -79.165565 6.3271804
-12.896742 -77.781006 7.6048093
-14.275393 -75.823669 9.0856152
-12.486494 -93.127747 -35.559654
-11.989183 -93.362137 -34.823895
-11.71018 -93.365372 -34.069595
-11.512053 -93.282471 -33.307186
-11.313702 -93.199509 -32.543938
-11.114386 -93.117249 -31.779961
-10.915617 -93.034103 -31.015099
-10.732452 -92.933884 -30.247465
-10.551313 -92.831108 -29.47855
-10.36919 -92.729004 -28.708712
-10.187574 -92.625946 -27.937769
-10.013983 -92.513824 -27.164604
-9.8499184 -92.390945 -26.388844
-9.6863346 -92.267059 -25.61175
-9.5217533 -92.143799 -24.83354
-9.3636608 -92.01297 -24.052975
-9.2188206 -91.867172 -23.268761
-9.0737133 -91.721092 -22.48308
-8.9283257 -91.574753 -21.695927
-8.7901745 -91.419876 -20.905882
-8.666029 -91.249008 -20.111498
-8.541605 -91.077759 -19.315357
-8.4169121 -90.906143 -18.517492
-8.3077145 -90.716675 -17.714516
-8.2057858 -90.518417 -16.907955
-8.1036015 -90.319641 -16.099375
-8.0041656 -90.117027 -15.288054
-7.9270782 -89.888672 -14.469303
-7.8497753 -89.659653 -13.648204
-7.7722301 -89.42997 -12.824701
-7.717905 -89.173325 -11.992878
-7.6694431 -88.909042 -11.15677
-7.6193066 -88.645599 -10.318283
-7.5932903 -88.353851 -9.470417
-7.5755424 -88.051575 -8.617115
-7.5584927 -87.747284 -7.7603736
-7.5726719 -87.406265 -6.8912706
-7.5915051 -87.058594 -6.0171099
-7.6196041 -86.698914 -5.1363626
-7.6801548 -86.30069 -4.2417173
-7.7409878 -85.900513 -3.3426526
-7.8431492 -85.451263 -2.4259429
-7.9528637 -84.991486 -1.501863
-8.0998554 -84.486862 -0.56030607
-8.2704887 -83.952866 0.39483023
-8.4847546 -83.366165 1.3709407
-8.7290688 -82.742203 2.3641067
-9.0469379 -82.030197 3.3905883
-9.4116917 -81.260635 4.4420896
-9.8640079 -80.385696 5.5346837
-10.45265 -79.347717 6.6886163
-11.218241 -78.098083 7.9222054
-12.287806 -76.486298 9.2887993
-14.413187 -73.625481 11.093822
-12.025209 -92.809189 -36.559391
-11.440588 -93.138107 -35.829967
-11.119804 -93.186356 -35.08033
-10.897596 -93.129242 -34.321869
-10.682734 -93.064056 -33.562111
-10.481955 -92.98349 -32.800213
-10.282438 -92.90123 -32.037334
-10.083479 -92.818069 -31.273579
-9.8843021 -92.734818 -30.509007
-9.6893902 -92.646637 -29.743034
-9.5069714 -92.544556 -28.97452
-9.3250465 -92.441544 -28.20488
-9.1421375 -92.339203 -27.434334
-8.9589939 -92.236725 -26.662777
-8.7927513 -92.115356 -25.887558
-8.6277428 -91.992188 -25.110886
-8.4624672 -91.868813 -24.332973
-8.2976723 -91.744431 -23.553713
-8.1467648 -91.604256 -22.770716
-8.0007954 -91.458084 -21.985336
-7.8545628 -91.31163 -21.198507
-7.7073021 -91.165733 -20.410351
-7.578373 -90.998901 -19.616972
-7.4529037 -90.82756 -18.821165
-7.3271465 -90.655853 -18.023613
-7.2041111 -90.480438 -17.223682
-7.1009064 -90.282104 -16.417444
-6.9974499 -90.083267 -15.609192
-6.8929844 -89.884796 -14.799074
-6.8046722 -89.667313 -13.982948
-6.7258415 -89.438263 -13.16217
-6.6467838 -89.208549 -12.339026
-6.5764675 -88.968002 -11.511154
-6.5254364 -88.70459 -10.675602
-6.4742374 -88.440308 -9.8372841
-6.4296265 -88.167435 -8.9942951
-6.4104614 -87.864395 -8.1411705
-6.3904705 -87.561081 -7.2850227
-6.3840084 -87.240997 -6.4216022
-6.4002342 -86.893539 -5.5478563
-6.415781 -86.545456 -4.6705742
-6.4633636 -86.158951 -3.7794418
-6.5218487 -85.758263 -2.8805895
-6.5974751 -85.33606 -1.9717712
-6.7050076 -84.875061 -1.0477061
-6.8193169 -84.404282 -0.11629725
-6.9854069 -83.871178 0.83821726
-7.1642742 -83.320938 1.8030744
-7.4022198 -82.699226 2.7952018
-7.6734619 -82.035858 3.806375
-8.0023594 -81.301956 4.8463159
-8.427599 -80.451454 5.9308696
-8.9426403 -79.491379 7.0594268
-9.6062222 -78.351532 8.256876
-10.525995 -76.903137 9.5690708
-11.962587 -74.83461 11.106716
-11.685579 -92.361465 -37.54924
-10.934635 -92.870331 -36.830421
-10.540182 -92.998245 -36.087292
-10.310608 -92.949203 -35.330952
-10.095076 -92.884827 -34.572811
-9.8801098 -92.819595 -33.813984
-9.6649647 -92.754318 -33.054497
-9.4518719 -92.686554 -32.294144
-9.2527142 -92.603394 -31.531498
-9.0533504 -92.520134 -30.768036
-8.8537655 -92.436798 -30.00375
-8.6532307 -92.354172 -29.238747
-8.4650707 -92.257668 -28.471209
-8.2818813 -92.15535 -27.701982
-8.0991802 -92.052094 -26.931629
-7.9154911 -91.949524 -26.160372
-7.7367535 -91.84108 -25.387281
-7.5710506 -91.717804 -24.610905
-7.4058361 -91.593506 -23.833195
-7.2396202 -91.469833 -23.054371
-7.0775585 -91.341034 -22.273508
-6.9307346 -91.194763 -21.488443
-6.7836399 -91.04821 -20.70192
-6.6362686 -90.90139 -19.913921
-6.4923153 -90.750153 -19.123692
-6.3657894 -90.57872 -18.328199
-6.2397366 -90.406097 -17.530806
-6.1126499 -90.233932 -16.731834
-5.9978619 -90.047195 -15.928253
-5.8931332 -89.848297 -15.120314
-5.7881489 -89.648918 -14.31037
-5.6851177 -89.446503 -13.49782
-5.6047573 -89.217438 -12.677374
-5.5241871 -88.987686 -11.854565
-5.4433651 -88.757294 -11.029385
-5.3845921 -88.500687 -10.195769
-5.3323212 -88.23558 -9.3576145
-5.2783718 -87.971313 -8.5170698
-5.2481136 -87.678665 -7.6668701
-5.2259636 -87.375435 -6.8111105
-5.2037239 -87.071075 -5.9521103
-5.2136288 -86.728149 -5.0799055
-5.2273483 -86.379395 -4.2028227
-5.2516575 -86.016846 -3.3185382
-5.3063107 -85.617386 -2.4204183
-5.3612194 -85.215958 -1.5178385
-5.4597301 -84.761765 -0.59609365
-5.5626011 -84.300552 0.3321414
-5.7058887 -83.789825 1.279675
-5.8700657 -83.252335 2.2403293
-6.0817451 -82.656433 3.2242293
-6.3159313 -82.031372 4.223104
-6.6324863 -81.305893 5.2600598
-7.001503 -80.514946 6.325253
-7.4431801 -79.634041 7.4276967
-8.0324326 -78.57312 8.5987225
-8.8096714 -77.282639 9.8577251
-9.9809837 -75.513893 11.293425
-12.724257 -71.847702 13.406845
-10.477484 -92.551498 -37.825638
-10.029238 -92.738327 -37.086254
-9.7513828 -92.741547 -36.334892
-9.5203075 -92.694077 -35.579517
-9.2942867 -92.64093 -34.823208
-9.0792179 -92.575684 -34.065296
-8.8639717 -92.510361 -33.306747
-8.6485348 -92.445007 -32.547562
-8.4321918 -92.380371 -31.787827
-8.2252483 -92.305191 -31.026302
-8.0254803 -92.221832 -30.263142
-7.8247623 -92.139206 -29.499249
-7.6245594 -92.055679 -28.734444
-7.4241581 -91.972046 -27.968834
-7.2411594 -91.868828 -27.199799
-7.0571804 -91.766281 -26.429852
-6.8737049 -91.662766 -25.658783
-6.6892529 -91.559952 -24.886824
-6.5177326 -91.442291 -24.111593
-6.3510971 -91.318695 -23.334303
-6.1841927 -91.194916 -22.555782
-6.0177631 -91.070122 -21.775902
-5.8620338 -90.932785 -20.992661
-5.7140827 -90.786148 -20.20644
-5.5658607 -90.639206 -19.418758
-5.4159031 -90.493668 -18.62991
-5.2824841 -90.328766 -17.835972
-5.1546402 -90.156891 -17.039051
-5.0265236 -89.984634 -16.240398
-4.8981266 -89.811996 -15.440014
-4.7921467 -89.613045 -14.632418
-4.6866245 -89.41275 -13.822607
-4.5793743 -89.213638 -13.011129
-4.4857941 -88.997986 -12.193993
-4.4036961 -88.768234 -11.371536
-4.3213634 -88.537811 -10.546707
-4.2468834 -88.297363 -9.7172527
-4.1920624 -88.033134 -8.8796625
-4.1370583 -87.768036 -8.0392971
-4.0885067 -87.494339 -7.1941967
-4.0642014 -87.191216 -6.3388333
-4.0397968 -86.886955 -5.4802251
-4.0301571 -86.564148 -4.6137247
-4.0412922 -86.215622 -3.7370715
-4.0509872 -85.867332 -2.8570993
-4.0958576 -85.476135 -1.9616399
-4.1476879 -85.075073 -1.0595422
-4.2200794 -84.64801 -0.14598989
-4.3200188 -84.186478 0.78196478
-4.4326344 -83.707947 1.7195153
-4.5900288 -83.174042 2.6786895
-4.767561 -82.613861 3.6512275
-4.9962463 -81.990128 4.6492906
-5.2684059 -81.31163 5.6710057
-5.5855827 -80.576187 6.7178683
-6.0130329 -79.70488 7.8168235
-6.5328236 -78.71843 8.9629059
-7.2093258 -77.53833 10.184521
-8.1578236 -76.023651 11.533222
-9.8006439 -73.659485 13.194332
-10.089483 -92.158707 -38.815266
-9.528204 -92.469238 -38.082657
-9.2099209 -92.516708 -37.335003
-8.9782085 -92.470047 -36.580891
-8.7471066 -92.422546 -35.826275
-8.5165939 -92.374207 -35.071121
-8.2852135 -92.32663 -34.315582
-8.0639782 -92.267738 -33.558533
-7.8484402 -92.202347 -32.80027
-7.6319942 -92.137695 -32.041458
-7.4161034 -92.072189 -31.281939
-7.2000332 -92.006622 -30.521778
-6.9976692 -91.925598 -29.759178
-6.7972813 -91.842056 -28.995495
-6.5966892 -91.758423 -28.231001
-6.3958778 -91.674713 -27.465675
-6.2014046 -91.583588 -26.698536
-6.0176258 -91.480118 -25.928787
-5.8328838 -91.377319 -25.158134
-5.6486225 -91.27359 -24.386358
-5.4648418 -91.168884 -23.613422
-5.2975292 -91.045197 -22.836449
-5.1306705 -90.920494 -22.058102
-4.9628201 -90.796417 -21.278658
-4.795435 -90.671318 -20.497849
-4.6466427 -90.524559 -19.711939
-4.4975719 -90.377533 -18.924574
-4.3474979 -90.231064 -18.135895
-4.2007637 -90.080185 -17.344942
-4.0718822 -89.908218 -16.548355
-3.942728 -89.735855 -15.750023
-3.8132801 -89.563141 -14.949961
-3.6937084 -89.378334 -14.145654
-3.5862103 -89.178818 -13.336359
-3.4784298 -88.978806 -12.525024
-3.3703747 -88.778275 -11.711648
-3.2867908 -88.548492 -10.88954
-3.2029438 -88.318054 -10.065062
-3.1188641 -88.086929 -9.2382011
-3.0556927 -87.830383 -8.402833
-2.9996185 -87.564468 -7.5626388
-2.9418793 -87.299393 -6.7200737
-2.9066639 -87.006683 -5.8677516
-2.8801136 -86.702545 -5.0095496
-2.8542118 -86.396362 -4.147893
-2.8591213 -86.052391 -3.2728288
-2.8677425 -85.702576 -2.3928404
-2.8882236 -85.337158 -1.5049973
-2.9369965 -84.936478 -0.60341692
-2.9867458 -84.532936 0.30289602
-3.0807724 -84.074661 1.2295051
-3.1775799 -83.611115 2.1621261
-3.3178082 -83.093384 3.1159854
-3.4732704 -82.555084 4.0813174
-3.6828785 -81.949081 5.0734582
-3.9123745 -81.316452 6.0800395
-4.2242889 -80.581116 7.1265044
-4.5939369 -79.772446 8.2045307
-5.0429058 -78.863678 9.3242264
-5.6221485 -77.791954 10.508635
-6.4261246 -76.440651 11.80068
-7.680027 -74.531837 13.302511
-9.8132744 -91.644402 -39.798302
-9.1004734 -92.121674 -39.072708
-8.7124424 -92.245758 -38.329803
-8.4550571 -92.227234 -37.578568
-8.2093563 -92.195831 -36.826218
-7.9752903 -92.151505 -36.072586
-7.7447567 -92.103111 -35.318192
-7.5133419 -92.055496 -34.5634
-7.2825108 -92.007065 -33.808071
-7.050806 -91.959412 -33.052357
-6.8342724 -91.89473 -32.294476
-6.6182823 -91.829193 -31.535881
-6.4021072 -91.763596 -30.776646
-6.1850243 -91.698746 -30.016865
-5.9728374 -91.628174 -29.255783
-5.7720528 -91.54454 -28.49239
-5.5710621 -91.460815 -27.728191
-5.3691196 -91.377823 -26.963268
-5.1669807 -91.294724 -26.197548
-4.9790497 -91.195236 -25.428661
-4.7945004 -91.09153 -24.658197
-4.6089802 -90.98851 -23.886837
-4.4239407 -90.884521 -23.114338
-4.2465763 -90.771378 -22.339346
-4.0783176 -90.647385 -21.561441
-3.9097996 -90.523209 -20.78232
-3.7417202 -90.397995 -20.001812
-3.5812969 -90.263504 -19.218414
-3.4306583 -90.117218 -18.431519
-3.2804623 -89.969818 -17.643
-3.1306973 -89.82132 -16.852848
-2.9907207 -89.660889 -16.058865
-2.8605289 -89.488464 -15.260876
-2.7300415 -89.315674 -14.461134
-2.600008 -89.141647 -13.659485
-2.4890842 -88.94458 -12.851051
-2.3800507 -88.744514 -12.040064
-2.270752 -88.54393 -11.22703
-2.1727085 -88.3293 -10.40877
-2.0873623 -88.098831 -9.5846291
-2.0017815 -87.867691 -8.7581234
-1.923172 -87.62735 -7.9271083
-1.8645763 -87.362312 -7.087491
-1.8057804 -87.096405 -6.2450919
-1.7525959 -86.822708 -5.3980803
-1.7239132 -86.518661 -4.5402889
-1.6958561 -86.212616 -3.6790333
-1.68153 -85.888824 -2.8098755
-1.6875973 -85.53923 -1.930306
-1.6929607 -85.188995 -1.0471969
-1.732111 -84.7966 -0.1483674
-1.7780704 -84.394318 0.75717068
-1.8471241 -83.962387 1.6755519
-1.9410076 -83.49852 2.6078935
-2.0510349 -83.013092 3.5514102
-2.2012997 -82.476593 4.5157857
-2.376543 -81.907326 5.4958682
-2.5960007 -81.28157 6.4998469
-2.8664379 -80.59066 7.5314479
-3.1834431 -79.839615 8.5898857
-3.6011105 -78.961487 9.6988525
-4.1257992 -77.947571 10.86323
-4.8165436 -76.724091 12.110788
-5.7881432 -75.147476 13.495586
-7.6431484 -72.467674 15.292799
-8.6996193 -91.745285 -40.060482
-8.2400665 -91.9487 -39.32135
-7.9557152 -91.959976 -38.572571
-7.7101421 -91.928543 -37.821117
-7.4644756 -91.897079 -37.069355
-7.2187099 -91.865616 -36.317303
-6.9742794 -91.832535 -35.564804
-6.7428474 -91.784882 -34.810772
-6.5119877 -91.736404 -34.056194
-6.2802658 -91.688683 -33.301239
-6.0491276 -91.640144 -32.545738
-5.8214474 -91.587532 -31.789345
-5.6051884 -91.521896 -31.03105
-5.3880024 -91.457031 -30.272198
-5.1713676 -91.391296 -29.512632
-4.9545536 -91.3255 -28.752424
-4.7476139 -91.248276 -27.990131
-4.5455074 -91.165268 -27.226328
-4.3438931 -91.08136 -26.461609
-4.1420689 -90.99736 -25.696068
-3.9428864 -90.910004 -24.929228
-3.7570896 -90.807007 -24.159191
-3.5717583 -90.703064 -23.388006
-3.3854637 -90.599808 -22.61594
-3.1989403 -90.496391 -21.842865
-3.0285759 -90.373947 -21.065538
-2.8600826 -90.248848 -20.286581
-2.6906223 -90.124344 -19.506533
-2.5208874 -89.99968 -18.725254
-2.3672733 -89.855759 -17.939125
-2.216238 -89.708267 -17.150919
-2.0649128 -89.560501 -16.36125
-1.9133148 -89.412445 -15.570101
-1.7813683 -89.240768 -14.772591
-1.6498508 -89.067886 -13.973186
-1.5180531 -88.894623 -13.172044
-1.3945179 -88.710907 -12.366896
-1.2842426 -88.510757 -11.556231
-1.1736889 -88.31012 -10.74354
-1.0621433 -88.109818 -9.9289894
-0.97461128 -87.880173 -9.1054382
-0.88751793 -87.649017 -8.2792683
-0.80019188 -87.417183 -7.4507298
-0.73194313 -87.161575 -6.6138587
-0.67136574 -86.895691 -5.7718549
-0.61058807 -86.628922 -4.9270554
-0.57117081 -86.335342 -4.072422
-0.54024506 -86.030273 -3.2117991
-0.50993919 -85.723175 -2.3476901
-0.51058388 -85.377289 -1.4695535
-0.51341248 -85.027275 -0.58688879
-0.53077316 -84.658096 0.30479288
-0.57369423 -84.256195 1.2098222
-0.61755943 -83.851425 2.1195912
-0.70778847 -83.388168 3.0513539
-0.79705811 -82.924103 3.987803
-0.93481255 -82.398438 4.9483895
-1.0823498 -81.858459 5.9186397
-1.289732 -81.242256 6.9191394
-1.5181293 -80.597382 7.9351134
-1.8184528 -79.860535 8.9884186
-2.1905937 -79.03125 10.080494
-2.6453876 -78.095413 11.217634
-3.2392864 -76.981888 12.426449
-4.0695744 -75.567818 13.753424
-5.3757305 -73.551071 15.312397
-8.3960056 -91.262085 -41.043076
-7.8195381 -91.595535 -40.308678
-7.479166 -91.669006 -39.56345
-7.2191296 -91.653656 -38.813717
-6.9655704 -91.631073 -38.063374
-6.7199345 -91.599579 -37.312199
-6.4741821 -91.568077 -36.560741
-6.2276211 -91.537369 -35.809025
-5.9816761 -91.505844 -35.056946
-5.7428455 -91.466202 -34.303875
-5.511095 -91.418465 -33.549671
-5.2799282 -91.369873 -32.794926
-5.0478916 -91.322083 -32.039795
-4.8157158 -91.274246 -31.284201
-4.5934315 -91.215027 -30.526888
-4.3766994 -91.149254 -29.768253
-4.1597805 -91.083443 -29.008965
-3.9426823 -91.017563 -28.249048
-3.7246876 -90.952454 -27.488605
-3.5229015 -90.86853 -26.724998
-3.3208904 -90.784531 -25.960567
-3.1186771 -90.700417 -25.195333
-2.9155197 -90.61705 -24.429392
-2.7220898 -90.522141 -23.660862
-2.5355244 -90.418915 -22.890125
-2.3494167 -90.314728 -22.118227
-2.1623592 -90.211212 -21.345457
-1.9807148 -90.100998 -20.57053
-1.8108425 -89.976593 -19.792019
-1.6414051 -89.851196 -19.012123
-1.4709892 -89.726425 -18.231163
-1.3052654 -89.595642 -17.447844
-1.1533833 -89.448044 -16.659964
-1.0012264 -89.300179 -15.870613
-0.84877968 -89.152023 -15.079775
-0.70451927 -88.993591 -14.285366
-0.57198143 -88.820618 -13.486279
-0.43913841 -88.647293 -12.685455
-0.30603218 -88.473557 -11.8829
-0.19027138 -88.278412 -11.073713
-0.078474045 -88.077705 -10.261369
0.033597946 -87.876495 -9.4469843
0.13605499 -87.662918 -8.627635
0.22462273 -87.431732 -7.8018465
0.31344795 -87.19989 -6.9736767
0.39684868 -86.960526 -6.1413231
0.458498 -86.693832 -5.2994785
0.52105522 -86.427101 -4.4550719
0.57812881 -86.152573 -3.6059604
0.61117363 -85.84761 -2.7457337
0.64433289 -85.541504 -1.8822875
0.6625843 -85.215858 -1.0102868
0.66156197 -84.865204 -0.12782621
0.66125488 -84.513916 0.75816727
0.62565422 -84.117676 1.6611218
0.58627129 -83.715073 2.5698333
0.51988602 -83.277359 3.4933553
0.43424034 -82.813881 4.4292254
0.32547569 -82.319687 5.3794093
0.18309212 -81.781525 6.3486896
0.010314941 -81.20314 7.336431
-0.19993401 -80.575409 8.3462963
-0.47062111 -79.869232 9.3888988
-0.78860474 -79.100601 10.459835
-1.1934338 -78.219391 11.577579
-1.7231121 -77.176895 12.761061
-2.4239483 -75.913605 14.033993
-3.4485683 -74.234787 15.470573
-5.7876549 -70.880676 17.542341
-8.2082424 -90.649719 -42.021683
-7.4423256 -91.194901 -41.293236
-7.0323982 -91.346146 -40.551292
-6.7601337 -91.344528 -39.802788
-6.5001621 -91.329178 -39.053482
-6.2401333 -91.313828 -38.304035
-5.9807873 -91.297653 -37.554379
-5.7307491 -91.270958 -36.803829
-5.4842129 -91.240219 -36.052715
-5.2382908 -91.208664 -35.301228
-4.9922924 -91.177078 -34.549454
-4.7461796 -91.145477 -33.797363
-4.5113964 -91.100922 -33.043739
-4.2793446 -91.05307 -32.289371
-4.0471497 -91.005188 -31.534542
-3.8155079 -90.956497 -30.779154
-3.583744 -90.907745 -30.023312
-3.3660183 -90.842705 -29.265053
-3.1488266 -90.776794 -28.506073
-2.9307346 -90.711655 -27.746557
-2.7131748 -90.645645 -26.9863
-2.5011005 -90.573044 -26.224514
-2.2986889 -90.488937 -25.460388
-2.0953693 -90.405563 -24.695568
-1.8925419 -90.321274 -23.929815
-1.6894855 -90.236923 -23.163237
-1.5016842 -90.134399 -22.392921
-1.3143482 -90.030937 -21.621471
-1.1274662 -89.926514 -20.848866
-0.93963051 -89.822769 -20.075377
-0.76418114 -89.704041 -19.298201
-0.59337234 -89.579361 -18.518768
-0.42229652 -89.454468 -17.738125
-0.25164223 -89.328552 -16.956076
-0.092626572 -89.188324 -16.169968
0.060373306 -89.040375 -15.380936
0.21365929 -88.892136 -14.590439
0.36723518 -88.743614 -13.79845
0.50430298 -88.574753 -13.000603
0.63746071 -88.400482 -12.199923
0.77160072 -88.226654 -11.397686
0.90044785 -88.045746 -10.592133
1.013483 -87.845001 -9.7801247
1.1260948 -87.642883 -8.9658775
1.2404003 -87.441971 -8.1499958
1.3332481 -87.214157 -7.3253956
1.4235516 -86.9823 -6.4976068
1.5141201 -86.749763 -5.6674032
1.5859642 -86.493362 -4.8286104
1.6502934 -86.226669 -3.9845934
1.7162609 -85.960846 -3.1382551
1.7598591 -85.666382 -2.281322
1.795126 -85.360374 -1.4182911
1.8291092 -85.051483 -0.55150986
1.8334332 -84.704544 0.32947779
1.83494 -84.352615 1.2152863
1.8214741 -83.980545 2.110559
1.7843666 -83.577438 3.0190272
1.7434959 -83.167847 3.9333663
1.6600132 -82.703178 4.8692174
1.5775051 -82.237701 5.8097587
1.4430885 -81.704964 6.776875
1.3041668 -81.164215 7.7517228
1.0992718 -80.537827 8.7607346
0.8700161 -79.877869 9.7872448
0.58120537 -79.139496 10.847336
0.20855713 -78.291367 11.953201
-0.25217438 -77.327324 13.108582
-0.85816002 -76.173645 14.34189
-1.7139492 -74.695358 15.705376
-3.1472626 -72.470268 17.360664
-7.1422977 -90.708191 -42.274551
-6.6360607 -90.967789 -41.535728
-6.3132687 -91.022842 -40.789982
-6.0418644 -91.020432 -40.041855
-5.7819786 -91.005035 -39.29298
-5.5220299 -90.989655 -38.543968
-5.2627392 -90.973465 -37.79475
-5.0026913 -90.958069 -37.045437
-4.74259 -90.942688 -36.295971
-4.4967175 -90.911072 -35.545086
-4.2507153 -90.879471 -34.793884
-4.0046406 -90.847839 -34.0424
-3.7584648 -90.816193 -33.290604
-3.512888 -90.783722 -32.538418
-3.2806683 -90.735825 -31.78434
-3.0490017 -90.687073 -31.029716
-2.8164883 -90.639114 -30.274706
-2.584547 -90.590294 -29.519152
-2.3574009 -90.535744 -28.76244
-2.1392193 -90.470566 -28.003849
-1.9215641 -90.404526 -27.24452
-1.7037334 -90.338425 -26.484575
-1.4850063 -90.273087 -25.724087
-1.2773037 -90.194611 -24.961071
-1.0742931 -90.110336 -24.196423
-0.87106705 -90.025955 -23.430975
-0.6676178 -89.94149 -22.664707
-0.46883202 -89.851181 -21.896666
-0.28166771 -89.746796 -21.125374
-0.093561172 -89.643097 -20.35322
0.094093323 -89.538422 -19.579897
0.28130531 -89.4328 -18.805414
0.45277977 -89.307999 -18.026299
0.62383652 -89.18219 -17.245806
0.79585457 -89.057007 -16.464231
0.96536446 -88.928299 -15.680767
1.1191978 -88.780243 -14.892048
1.2733173 -88.631897 -14.101866
1.4284191 -88.484131 -13.310379
1.5768757 -88.327713 -12.515587
1.7117481 -88.15419 -11.715425
1.8469219 -87.980301 -10.913517
1.9823933 -87.806046 -10.109875
2.1022091 -87.611984 -9.2998047
2.2167492 -87.410652 -8.4860935
2.3322735 -87.209671 -7.6705689
2.4390697 -86.997131 -6.8501706
2.5308437 -86.765244 -6.0227365
2.6229 -86.5327 -5.1929073
2.711031 -86.294312 -4.3592877
2.7764435 -86.02681 -3.5154128
2.8427486 -85.759277 -2.6689916
2.9043941 -85.484787 -1.8180518
2.9417706 -85.178925 -0.95543623
2.9785709 -84.871017 -0.089326382
3.0007782 -84.543533 0.78555059
3.0047817 -84.191818 1.6708827
3.0102139 -83.840363 2.5594811
2.9782047 -83.440277 3.4666142
2.9446354 -83.036453 4.3787532
2.8817425 -82.593811 5.30722
2.8035374 -82.129837 6.2468553
2.6976566 -81.628708 7.2032113
2.5623913 -81.087967 8.1776505
2.3922749 -80.500412 9.1732101
2.1911869 -79.870682 10.188925
1.9220619 -79.151047 11.242132
1.6005802 -78.361 12.327213
1.2085361 -77.476685 13.453705
0.67453003 -76.405434 14.656794
-0.034687042 -75.103027 15.955469
-1.1600437 -73.255966 17.470337
-6.9161396 -90.137817 -43.254314
-6.2709522 -90.554672 -42.518566
-5.8978634 -90.666656 -41.774696
-5.6193657 -90.672348 -41.027203
-5.3459034 -90.672333 -40.279469
-5.0724506 -90.672333 -39.53175
-4.8046932 -90.665855 -38.783634
-4.5454826 -90.649628 -38.034863
-4.2855053 -90.634216 -37.285973
-4.0254822 -90.618805 -36.536949
-3.7653828 -90.603394 -35.787769
-3.5095119 -90.583084 -35.038052
-3.2634563 -90.551422 -34.28714
-3.0173092 -90.519745 -33.535942
-2.7710514 -90.48806 -32.784428
-2.5247021 -90.45636 -32.032616
-2.2838669 -90.418137 -31.27981
-2.0513363 -90.370132 -30.52557
-1.8193607 -90.321274 -29.770769
-1.5865421 -90.273224 -29.015596
-1.3549824 -90.223495 -28.259766
-1.1309547 -90.164749 -27.502291
-0.91301727 -90.098625 -26.743259
-0.69421577 -90.033264 -25.983721
-0.47591591 -89.967018 -25.223421
-0.25882912 -89.899094 -24.462246
-0.055421829 -89.814713 -23.697905
0.1482029 -89.73024 -22.932741
0.35273743 -89.6465 -22.166908
0.55679512 -89.561852 -21.400118
0.75000954 -89.463928 -20.630238
0.93795776 -89.359314 -19.858242
1.1268177 -89.255371 -19.085384
1.3152599 -89.150467 -18.311344
1.4956703 -89.035492 -17.534409
1.668087 -88.9104 -16.754374
1.840765 -88.78511 -15.973114
2.0130424 -88.658798 -15.190466
2.1766491 -88.521454 -14.404278
2.3315907 -88.373016 -13.614431
2.4868298 -88.224312 -12.823093
2.6430569 -88.076172 -12.030464
2.7837601 -87.908447 -11.231953
2.9199409 -87.734467 -10.430397
3.0564384 -87.560135 -9.6270828
3.1897831 -87.38118 -8.8209953
3.3055515 -87.17981 -8.007659
3.4216194 -86.977921 -7.1922598
3.537981 -86.775543 -6.3748217
3.6353607 -86.548752 -5.5490584
3.7288799 -86.316177 -4.719593
3.8226681 -86.082932 -3.8877397
3.8994846 -85.827499 -3.0475187
3.9675484 -85.559998 -2.2015061
4.0365543 -85.292511 -1.3529329
4.0849895 -84.998001 -0.49396038
4.1238918 -84.690231 0.37171221
4.1636486 -84.382156 1.2404189
4.1715336 -84.032425 2.1247535
4.178751 -83.680321 3.0131545
4.1685162 -83.304489 3.9123502
4.1372128 -82.900162 4.8242259
4.0994225 -82.485764 5.7432046
4.0233555 -82.020584 6.6828303
3.9461517 -81.551872 7.6280303
3.8166332 -81.01387 8.6011429
3.6791477 -80.463203 9.5837116
3.4833393 -79.834816 10.598551
3.2550392 -79.161575 11.63518
2.9762363 -78.419861 12.70266
2.6020298 -77.55085 13.823311
2.1375237 -76.560356 14.996769
1.5189419 -75.364304 16.256042
0.63920403 -73.821243 17.657295
-0.99261475 -71.285233 19.451706
-6.9882717 -89.229324 -44.228046
-5.9771671 -90.060913 -43.499123
-5.511446 -90.278214 -42.757664
-5.2000599 -90.321274 -42.01165
-4.9259777 -90.322083 -41.264233
-4.6526241 -90.32209 -40.516788
-4.379261 -90.322098 -39.769344
-4.1059055 -90.322083 -39.021893
-3.8325481 -90.32209 -38.274448
-3.5690975 -90.310715 -37.526264
-3.3091335 -90.29528 -36.777649
-3.0491276 -90.279846 -36.028912
-2.7897758 -90.26358 -35.279961
-2.5296612 -90.248138 -34.530918
-2.2779179 -90.222916 -33.780853
-2.0316944 -90.191193 -33.02993
-1.785368 -90.159454 -32.278709
-1.5389481 -90.127701 -31.527185
-1.2924213 -90.095947 -30.775352
-1.055542 -90.05275 -30.021929
-0.82270622 -90.004654 -29.267519
-0.59042358 -89.955696 -28.512547
-0.3572979 -89.907532 -27.757202
-0.12472343 -89.858521 -27.001291
0.094179153 -89.793129 -26.242664
0.31257057 -89.726868 -25.483303
0.5311451 -89.660538 -24.723299
0.74989128 -89.594162 -23.962671
0.96264076 -89.52034 -23.200237
1.1673412 -89.4366 -22.435516
1.3715801 -89.351944 -21.669842
1.576025 -89.267197 -20.90337
1.7793121 -89.18071 -20.135778
1.9684734 -89.076828 -19.364223
2.1571751 -88.971939 -18.591532
2.3468189 -88.867767 -17.817959
2.5360241 -88.762619 -17.043217
2.7111473 -88.639923 -16.263988
2.8838196 -88.513702 -15.48288
3.0574474 -88.388123 -14.700701
3.2306461 -88.261505 -13.917144
3.3877964 -88.114639 -13.127943
3.5438671 -87.965843 -12.336935
3.7002201 -87.816772 -11.544464
3.854147 -87.664047 -10.749733
3.991354 -87.490005 -9.948494
4.1288662 -87.315582 -9.1455193
4.2659779 -87.139923 -8.3406029
4.3911438 -86.948654 -7.5301075
4.5084352 -86.746719 -6.7150521
4.6260204 -86.544281 -5.8979721
4.7370815 -86.332809 -5.0765872
4.8320713 -86.100212 -4.2474771
4.9273233 -85.866951 -3.4159994
5.0194492 -85.628723 -2.5809155
5.0885811 -85.360413 -1.7350521
5.1600008 -85.093819 -0.88713121
5.2241106 -84.816772 -0.033625126
5.2657967 -84.509979 0.83140182
5.3069563 -84.201157 1.6999221
5.3344851 -83.873566 2.5771508
5.3434925 -83.520813 3.4653316
5.3525276 -83.166527 4.3573432
5.3255568 -82.764359 5.2681289
5.2977695 -82.359314 6.1836591
5.2391481 -81.912666 7.1167979
5.1669121 -81.446381 8.0607853
5.0640831 -80.938286 9.0234337
4.9373341 -80.396805 10.002426
4.7693644 -79.799149 11.006231
4.5766706 -79.166489 12.028103
4.3086872 -78.432373 13.092484
3.9870853 -77.624557 14.190678
3.5888729 -76.712288 15.335083
3.0628052 -75.627319 16.552691
2.3162193 -74.245979 17.892836
1.1325245 -72.279396 19.470484
-5.7645054 -89.474121 -44.478687
-5.1759624 -89.832016 -43.738811
-4.8174572 -89.928963 -42.994053
-4.5305882 -89.944443 -42.24725
-4.2444935 -89.959091 -41.500557
-3.9598541 -89.972115 -40.753925
-3.6866131 -89.972092 -40.006767
-3.4133511 -89.972107 -39.259602
-3.1400967 -89.972107 -38.512432
-2.8668346 -89.972115 -37.765266
-2.5935879 -89.972099 -37.018101
-2.333643 -89.956642 -36.269787
-2.0743523 -89.940369 -35.521263
-1.8143177 -89.924896 -34.772659
-1.5542316 -89.909416 -34.023911
-1.2940826 -89.893944 -33.275002
-1.0464001 -89.863792 -32.524529
-0.80000114 -89.832016 -31.773579
-0.55351639 -89.800201 -31.022354
-0.30692291 -89.768387 -30.270813
-0.060235977 -89.736557 -29.518982
0.17207909 -89.687576 -28.764759
0.40523338 -89.639374 -28.010168
0.63782883 -89.590317 -27.255022
0.87125587 -89.542053 -26.499512
1.0993538 -89.487228 -25.742622
1.3180218 -89.420876 -24.983555
1.5368633 -89.354462 -24.22385
1.7565804 -89.288818 -23.463629
1.9757938 -89.222305 -22.70266
2.1836109 -89.141754 -21.938757
2.3882313 -89.057007 -21.173386
2.5930691 -88.972168 -20.407198
2.7988091 -88.888062 -19.640343
2.9966125 -88.793945 -18.870874
3.1865368 -88.689819 -18.098616
3.3760128 -88.584702 -17.325199
3.5664272 -88.480301 -16.55093
3.751667 -88.369095 -15.774315
3.925684 -88.243622 -14.993683
4.0999584 -88.11792 -14.21184
4.2738533 -87.991226 -13.42857
4.441926 -87.856766 -12.642416
4.5988274 -87.707886 -11.851735
4.7566795 -87.559547 -11.059787
4.9134855 -87.409271 -10.265959
5.0597954 -87.245224 -9.467433
5.1983137 -87.070724 -8.6647949
5.3371305 -86.895844 -7.8604178
5.4742146 -86.718033 -7.0536594
5.5927258 -86.516045 -6.2389622
5.711525 -86.313553 -5.4222479
5.8306303 -86.11055 -4.6034694
5.9331532 -85.885651 -3.7767882
6.0298634 -85.652374 -2.945684
6.1268644 -85.418427 -2.1122007
6.2078915 -85.163086 -1.2703705
6.2796926 -84.894806 -0.42233801
6.3524008 -84.626511 0.42820692
6.4042969 -84.330276 1.2896905
6.448205 -84.02243 2.1575236
6.4916 -83.71257 3.0288806
6.5044422 -83.361801 3.9160571
6.516655 -83.008652 4.8073001
6.5103941 -82.629929 5.7101712
6.4848537 -82.224396 6.6254363
6.4509163 -81.806068 7.5488057
6.3808355 -81.338593 8.4927616
6.3068914 -80.863922 9.443615
6.184411 -80.323349 10.421846
6.0492573 -79.763626 11.411959
5.8618221 -79.132324 12.43293
5.6340494 -78.444809 13.480221
5.3637962 -77.697815 14.555815
4.9928093 -76.81353 15.68948
4.5237179 -75.794525 16.882168
3.8972511 -74.560715 18.16633
2.9937153 -72.950447 19.607334
1.0415726 -69.926353 21.61554
-5.728117 -88.684166 -45.457195
-4.9032516 -89.313599 -44.718922
-4.4498978 -89.519592 -43.975815
-4.1474323 -89.553055 -43.229454
-3.8606892 -89.568558 -42.48278
-3.5747223 -89.583237 -41.736237
-3.2880878 -89.59874 -40.989841
-3.0022106 -89.613419 -40.243565
-2.7213097 -89.622391 -39.497112
-2.4481544 -89.622391 -38.750229
-2.1750145 -89.622375 -38.003357
-1.9018536 -89.622391 -37.256462
-1.6287022 -89.622383 -36.509586
-1.359724 -89.617493 -35.762318
-1.0997524 -89.602005 -35.014145
-0.83973694 -89.586502 -34.265823
-0.57966423 -89.570999 -33.517353
-0.31954575 -89.555496 -32.768738
-0.062135696 -89.536728 -32.019646
0.1843338 -89.504898 -31.268999
0.43088722 -89.473038 -30.518049
0.67823982 -89.442001 -29.766897
0.92499924 -89.410126 -29.015348
1.1663837 -89.371689 -28.262691
1.3990154 -89.322601 -27.508293
1.6324673 -89.274307 -26.75354
1.8653851 -89.225159 -25.998217
2.099123 -89.176804 -25.242537
2.3228092 -89.116089 -24.484592
2.542614 -89.05043 -23.725307
2.761919 -88.983887 -22.965263
2.9814034 -88.917282 -22.20459
3.1990547 -88.848167 -21.442858
3.4040661 -88.763321 -20.67779
3.6099758 -88.679214 -19.912052
3.8154221 -88.594193 -19.145348
4.0204105 -88.508247 -18.377699
4.2135334 -88.40731 -17.606359
4.4042091 -88.302948 -16.833416
4.5951319 -88.198425 -16.059454
4.7856331 -88.092941 -15.284311
4.9649973 -87.973175 -14.505194
5.1392641 -87.846558 -13.72349
5.3144855 -87.720573 -12.940727
5.4893236 -87.593567 -12.156532
5.6517115 -87.450424 -11.367483
5.8097334 -87.301178 -10.575661
5.9680195 -87.151611 -9.7823563
6.1266251 -87.001801 -8.9875908
6.2661467 -86.827225 -8.1852989
6.4059725 -86.652267 -7.3812628
6.5454292 -86.476089 -6.575284
6.6751671 -86.286758 -5.7641983
6.7951841 -86.084229 -4.9478369
6.9148397 -85.880318 -4.1291766
7.0307837 -85.670761 -3.3070593
7.1289406 -85.437469 -2.4763365
7.2274046 -85.203522 -1.6432185
7.3234558 -84.965439 -0.80670357
7.3969898 -84.697205 0.040906906
7.4714308 -84.42894 0.89105701
7.5393991 -84.151077 1.746635
7.5853767 -83.843384 2.6140208
7.6315193 -83.534515 3.4846673
7.6623096 -83.204208 4.3650184
7.676301 -82.850403 5.2560687
7.6910276 -82.495972 6.1506553
7.6684217 -82.090836 7.0653577
7.6463785 -81.684601 7.984262
7.590723 -81.232101 8.9227638
7.5258484 -80.765335 9.8704624
7.426158 -80.250237 10.839468
7.3064871 -79.706177 11.823612
7.1408653 -79.098366 12.835817
6.9530754 -78.458122 13.865555
6.6914387 -77.716003 14.938919
6.3694324 -76.889397 16.050875
5.9649925 -75.948036 17.214043
5.4276066 -74.822975 18.456476
4.6585712 -73.379478 19.833038
3.4215279 -71.295021 21.47488
-4.710928 -88.701584 -45.69902
-4.1476917 -89.034882 -44.956127
-3.7912807 -89.130676 -44.210686
-3.4918213 -89.16095 -43.464275
-3.1924839 -89.191208 -42.718159
-2.9059238 -89.206741 -41.971767
-2.6194134 -89.222275 -41.225506
-2.3336601 -89.236984 -40.479359
-2.0472698 -89.25251 -39.733398
-1.7609291 -89.268028 -38.987579
-1.484396 -89.27211 -38.241215
-1.2113419 -89.272102 -37.494591
-0.93828773 -89.27211 -36.74799
-0.66453552 -89.272934 -36.001431
-0.39149094 -89.272919 -35.254833
-0.12532806 -89.264755 -34.50753
0.13466454 -89.249237 -33.759499
0.39472008 -89.233719 -33.011318
0.65412712 -89.217369 -32.262917
0.91427803 -89.201836 -31.514429
1.1669636 -89.177307 -30.764835
1.4142818 -89.146225 -30.014263
1.6610088 -89.114311 -29.263315
1.9078312 -89.082382 -28.512053
2.1547661 -89.050453 -27.760492
2.3929863 -89.007843 -27.007223
2.6259251 -88.958656 -26.252653
2.8596897 -88.910263 -25.497738
3.0935936 -88.861847 -24.742359
3.3262844 -88.811745 -23.98628
3.545681 -88.745163 -23.227161
3.7652607 -88.678543 -22.467419
3.9856853 -88.612671 -21.707178
4.2056293 -88.545929 -20.946159
4.4184017 -88.47007 -20.182934
4.6240177 -88.385033 -19.417347
4.8298588 -88.299927 -18.650946
5.0365829 -88.215546 -17.8839
5.2395267 -88.126099 -17.115065
5.4307165 -88.021637 -16.342426
5.6214895 -87.916183 -15.568615
5.8131723 -87.811432 -14.793968
6.0024614 -87.703217 -14.017576
6.1780586 -87.577332 -13.236366
6.35394 -87.451263 -12.453912
6.5300903 -87.324982 -11.670242
6.702548 -87.193481 -10.884188
6.8613815 -87.044128 -10.09267
7.0204954 -86.894485 -9.2997131
7.1799154 -86.744568 -8.5052738
7.3310289 -86.583405 -7.7066317
7.4711933 -86.407516 -6.9027171
7.6123257 -86.232101 -6.0972767
7.7537632 -86.056305 -5.2900925
7.8749971 -85.853722 -4.4740729
7.9965296 -85.65062 -3.6560154
8.1190252 -85.447861 -2.8361301
8.2252674 -85.223129 -2.0081558
8.3251638 -84.989151 -1.1754231
8.4253607 -84.754517 -0.34028101
8.5112257 -84.500137 0.50289297
8.5867338 -84.231064 1.3528957
8.6631441 -83.961967 2.2054162
8.7198267 -83.665726 3.0688987
8.7680283 -83.357002 3.9390788
8.8157511 -83.046227 4.8128371
8.8321848 -82.692673 5.7033839
8.8493519 -82.33847 6.5974612
8.8477774 -81.957733 7.503737
8.8279867 -81.55101 8.4223728
8.7965994 -81.126953 9.3507767
8.7331705 -80.658066 10.298763
8.6625872 -80.177429 11.255306
8.5464792 -79.633377 12.23901
8.4138346 -79.064537 13.236799
8.2361326 -78.43222 14.26321
8.0105972 -77.732224 15.320696
7.7377796 -76.964828 16.410105
7.3801117 -76.078461 17.552013
6.9056978 -75.028839 18.765182
6.2693539 -73.753067 20.076458
5.2864475 -71.996735 21.589458
-4.6684742 -87.914162 -46.68018
-3.8885174 -88.499542 -45.936714
-3.4527473 -88.687721 -45.191738
-3.1448269 -88.727921 -44.445202
-2.8455067 -88.75827 -43.698772
-2.5462933 -88.788612 -42.952637
-2.2472095 -88.818924 -42.206787
-1.9510174 -88.845963 -41.461071
-1.6653957 -88.860703 -40.715069
-1.3791256 -88.876259 -39.969227
-1.092905 -88.891815 -39.223537
-0.8074398 -88.906548 -38.477951
-0.52132607 -88.922104 -37.732536
-0.24768448 -88.922913 -36.986263
0.025945663 -88.923729 -36.240002
0.29889488 -88.923729 -35.493675
0.57183266 -88.923721 -34.74736
0.84478569 -88.923721 -34.001034
1.1075001 -88.911453 -33.253571
1.3668461 -88.895088 -32.505596
1.6269302 -88.879539 -31.757545
1.8870487 -88.863968 -31.009356
2.1465511 -88.847595 -30.260933
2.3966427 -88.819748 -29.511009
2.6434307 -88.787773 -28.760353
2.8903427 -88.755814 -28.009378
3.1373329 -88.723816 -27.258104
3.3844318 -88.691826 -26.506533
3.6182156 -88.643387 -25.752361
3.8521328 -88.594925 -24.997744
4.0855312 -88.545609 -24.242542
4.3190727 -88.496269 -23.486864
4.5480824 -88.441116 -22.72982
4.7685986 -88.375244 -21.970514
4.9886322 -88.308472 -21.210424
5.2088537 -88.241653 -20.449705
5.4292536 -88.174774 -19.688362
5.6372452 -88.092117 -18.923515
5.8434696 -88.006912 -18.157427
6.0505819 -87.922455 -17.390673
6.2572393 -87.837059 -16.622961
6.4542284 -87.73912 -15.851915
6.6461811 -87.634415 -15.078575
6.837719 -87.528732 -14.304058
7.0308332 -87.424576 -13.52887
7.214982 -87.308601 -12.75012
7.3908558 -87.18158 -11.967804
7.5676689 -87.055206 -11.184444
7.7447538 -86.928635 -10.39987
7.9109631 -86.787582 -9.6106586
8.0709114 -86.637863 -8.8180122
8.231144 -86.487839 -8.023901
8.3916874 -86.33757 -7.2283187
8.5348177 -86.164139 -6.425386
8.6769533 -85.988663 -5.6203074
8.8200417 -85.813614 -4.8136859
8.9529648 -85.624588 -4.001647
9.0756989 -85.421432 -3.1839352
9.1994009 -85.218628 -2.3644247
9.3188248 -85.009308 -1.5411558
9.4201641 -84.77533 -0.70881414
9.5218019 -84.54068 0.12593985
9.622407 -84.303619 0.96360302
9.6996412 -84.034592 1.8131995
9.7777634 -83.765549 2.6652961
9.8502197 -83.487732 3.5226684
9.9004803 -83.179138 4.392427
9.9502573 -82.8685 5.2657113
9.9849958 -82.536331 6.1489663
10.003937 -82.181488 7.0428376
10.022965 -81.825119 7.9405417
10.005407 -81.4179 8.8589153
9.9891014 -81.010475 9.7811832
9.937192 -80.553032 10.724796
9.8782539 -80.083961 11.6768
9.7832012 -79.563644 12.651646
9.6712904 -79.01796 13.640598
9.5082216 -78.399933 14.661343
9.3213558 -77.746475 15.701126
9.0696278 -77.001022 16.78183
8.7462444 -76.15361 17.908579
8.3383789 -75.185867 19.089911
7.7892361 -74.018494 20.358652
6.9992504 -72.512329 21.772839
5.5716877 -70.114677 23.559307
-3.7268696 -87.849304 -46.918083
-3.1740475 -88.174576 -46.172375
-2.8146248 -88.275009 -45.42609
-2.5026379 -88.320267 -44.679585
-2.1999493 -88.354797 -43.933231
-1.900877 -88.385201 -43.187077
-1.6019115 -88.415604 -42.4412
-1.3030682 -88.445984 -41.695606
-1.0043316 -88.476364 -40.950298
-0.71056175 -88.500977 -40.205009
-0.42446709 -88.516571 -39.459446
-0.13912392 -88.531334 -38.713993
0.14686012 -88.546921 -37.968723
0.43278694 -88.5625 -37.223598
0.71591759 -88.574799 -36.478382
0.98875999 -88.574799 -35.732346
1.2616062 -88.574799 -34.986301
1.5344486 -88.574799 -34.240257
1.8072929 -88.574791 -33.494213
2.078783 -88.573151 -32.748013
2.3388004 -88.557587 -32.000393
2.5988522 -88.541992 -31.252628
2.8589611 -88.526413 -30.504726
3.1184406 -88.510002 -29.75658
3.3779926 -88.493607 -29.008278
3.6248531 -88.461586 -28.2579
3.8718224 -88.429565 -27.507217
4.1188869 -88.397537 -26.756233
4.3660526 -88.365494 -26.004953
4.6093197 -88.328484 -25.252663
4.8427429 -88.279144 -24.498215
5.076972 -88.230576 -23.743427
5.3106766 -88.181168 -22.98805
5.5445251 -88.131714 -22.23221
5.7692833 -88.070702 -21.473986
5.9895811 -88.003845 -20.714195
6.2100697 -87.936935 -19.953777
6.4307508 -87.86998 -19.192715
6.6483192 -87.79882 -18.430269
6.8555851 -87.71434 -17.664633
7.0624275 -87.628967 -16.898026
7.2694683 -87.543472 -16.130611
7.4767351 -87.457886 -15.362371
7.6692057 -87.353088 -14.589336
7.8619137 -87.248138 -13.815301
8.054224 -87.142212 -13.04006
8.2474413 -87.036995 -12.263994
8.4265852 -86.913239 -11.482748
8.6040459 -86.786766 -10.699725
8.7811394 -86.659256 -9.9152622
8.9578562 -86.530685 -9.1293545
9.1186161 -86.380875 -8.3370466
9.2796621 -86.230782 -7.543273
9.4416647 -86.081253 -6.7482343
9.5968208 -85.922127 -5.9493074
9.739954 -85.746567 -5.1445627
9.8833876 -85.570618 -4.3380771
10.02715 -85.394302 -3.5298333
10.15303 -85.193649 -2.7131853
10.277281 -84.989944 -1.8938036
10.401834 -84.785721 -1.072372
10.513059 -84.562912 -0.24361181
10.616125 -84.328232 0.59074497
10.718847 -84.092041 1.4277539
10.808845 -83.837784 2.2725081
10.88803 -83.567909 3.1244845
10.968786 -83.298904 3.9786868
11.029558 -83.001801 4.8444247
11.081385 -82.691292 5.717258
11.134064 -82.380493 6.5930905
11.15543 -82.025894 7.4864554
11.177555 -81.67067 8.3833504
11.179337 -81.286148 9.2936287
11.16592 -80.87912 10.215317
11.137198 -80.44931 11.148842
11.081731 -79.98085 12.100189
11.012599 -79.491455 13.063482
10.904896 -78.946709 14.051655
10.774282 -78.367805 15.057587
10.604902 -77.732605 16.090097
10.380498 -77.018188 17.158674
10.10627 -76.231186 18.261909
9.7625399 -75.343735 19.411657
9.2849083 -74.265244 20.645073
8.6354513 -72.941315 21.986561
7.5681496 -71.025337 23.579576
-3.7034473 -87.034714 -47.902302
-2.9401302 -87.607803 -47.154022
-2.5095062 -87.792145 -46.407211
-2.1911602 -87.844986 -45.660191
-1.8793335 -87.89035 -44.913536
-1.5676708 -87.935692 -44.167297
-1.2554836 -87.981842 -43.421486
-0.95596504 -88.013138 -42.675629
-0.65725899 -88.043594 -41.930027
-0.35866356 -88.074043 -41.184711
-0.060174942 -88.104492 -40.439671
0.23819542 -88.134918 -39.69492
0.52822685 -88.155457 -38.949898
0.81408501 -88.171082 -38.204754
1.0998917 -88.186699 -37.459755
1.3849564 -88.201485 -36.714848
1.6706409 -88.217087 -35.97015
1.9508553 -88.226128 -35.225063
2.2235985 -88.22612 -34.479294
2.4963474 -88.226128 -33.733528
2.7690868 -88.22612 -32.987766
3.0418262 -88.22612 -32.242004
3.3098812 -88.220367 -31.495644
3.5699139 -88.204773 -30.748167
3.8293324 -88.188339 -30.000452
4.0894756 -88.172729 -29.252676
4.3489933 -88.156281 -28.504663
4.6045856 -88.134918 -27.755873
4.851613 -88.102829 -27.005478
5.0987568 -88.070755 -26.254776
5.3459864 -88.038658 -25.503778
5.593318 -88.006546 -24.752487
5.8328514 -87.964546 -23.999393
6.066577 -87.915085 -23.24478
6.301116 -87.86644 -22.489819
6.5351276 -87.816917 -21.734266
6.769289 -87.767372 -20.97826
6.9898729 -87.700455 -20.218767
7.2112789 -87.634277 -19.458794
7.4322281 -87.567245 -18.698044
7.6533623 -87.500153 -17.936647
7.8662119 -87.422211 -17.172567
8.0734234 -87.336716 -16.406263
8.2808561 -87.251144 -15.639154
8.489172 -87.166313 -14.871384
8.6912146 -87.073051 -14.101055
8.8837872 -86.967178 -13.327163
9.07726 -86.862 -12.552415
9.2703419 -86.755844 -11.776482
9.4597979 -86.644516 -10.998373
9.6372776 -86.51712 -10.215454
9.8156643 -86.390335 -9.4315128
9.9943457 -86.263382 -8.6463432
10.164919 -86.125244 -7.8572268
10.326788 -85.975067 -7.0637827
10.488946 -85.8246 -6.2688718
10.652062 -85.674698 -5.4726753
10.800039 -85.50415 -4.6696095
10.94448 -85.328133 -3.8634629
11.088579 -85.150879 -3.0553412
11.227202 -84.96553 -2.2433023
11.352651 -84.76178 -1.4242911
11.478413 -84.55751 -0.60321236
11.602552 -84.350151 0.22065735
11.707058 -84.115494 1.0546341
11.811853 -83.880135 1.8910041
11.916319 -83.643257 2.7300334
11.997213 -83.373444 3.581573
12.078377 -83.102737 4.4359241
12.155279 -82.824997 5.2950454
12.209795 -82.515495 6.1671576
12.263864 -82.203949 7.0428329
12.30255 -81.869934 7.9289565
12.327071 -81.514938 8.8253326
12.34911 -81.154861 9.7268009
12.337262 -80.746452 10.648535
12.326648 -80.337822 11.574139
12.27921 -79.876328 12.522577
12.226887 -79.405876 13.478579
12.134568 -78.877609 14.460289
12.030369 -78.330284 15.454025
11.870072 -77.702011 16.48348
11.683743 -77.034317 17.533882
11.443253 -76.287422 18.621201
11.120337 -75.421013 19.762337
10.709678 -74.42675 20.96228
10.151206 -73.218781 22.257269
9.3375912 -71.643539 23.712692
7.7283297 -68.930771 25.650028
-2.8101711 -86.916809 -48.137684
-2.2518158 -87.252472 -47.389027
-1.8857288 -87.361855 -46.641556
-1.567564 -87.414825 -45.894379
-1.2558575 -87.460327 -45.147541
-0.94433403 -87.505798 -44.401138
-0.63229752 -87.552063 -43.655182
-0.32111549 -87.597504 -42.909618
-0.012189865 -87.640411 -42.164387
0.28627205 -87.670929 -41.419056
0.58461952 -87.701447 -40.674004
0.88286781 -87.731964 -39.929222
1.1809902 -87.762451 -39.184738
1.4789982 -87.792923 -38.44054
1.7667179 -87.81105 -37.69582
2.0516567 -87.825851 -36.951046
2.3372307 -87.841507 -36.206467
2.6227436 -87.857147 -35.462032
2.9075165 -87.871948 -34.717697
3.1848679 -87.877716 -33.972679
3.4575138 -87.877716 -33.227188
3.7301579 -87.877716 -32.481701
4.0027905 -87.877708 -31.736221
4.2754364 -87.877716 -30.990728
4.5394478 -87.867012 -30.244055
4.799509 -87.851379 -29.496721
5.0596304 -87.835739 -28.749233
5.3197956 -87.820099 -28.0016
5.580018 -87.804459 -27.253824
5.831069 -87.777283 -26.504358
6.0782785 -87.745148 -25.753944
6.325573 -87.712997 -25.003242
6.5729742 -87.680832 -24.252232
6.8204727 -87.648659 -23.500921
7.0556746 -87.6008 -22.746849
7.2897253 -87.551254 -21.992048
7.5245523 -87.502487 -21.236923
7.7588873 -87.452881 -20.481205
7.9888248 -87.397446 -19.724005
8.2098579 -87.330383 -18.964169
8.4310703 -87.263252 -18.203712
8.6524725 -87.196075 -17.442623
8.874052 -87.12883 -16.680895
9.0822983 -87.044083 -15.915058
9.2907639 -86.959251 -15.148411
9.4988012 -86.873489 -14.380785
9.7070684 -86.787643 -13.612333
9.904645 -86.6875 -12.839989
10.097985 -86.58139 -12.065386
10.292223 -86.475983 -11.289943
10.486702 -86.370422 -10.513498
10.669948 -86.249634 -9.7324677
10.848987 -86.122757 -8.948843
11.027678 -85.994858 -8.1637926
11.207279 -85.867584 -7.3777056
11.371861 -85.719833 -6.5852242
11.534838 -85.569283 -5.7906308
11.698755 -85.419312 -4.9948034
11.85787 -85.262238 -4.1956744
12.003296 -85.086151 -3.3898797
12.149039 -84.909683 -2.5823307
12.29509 -84.732826 -1.7730474
12.425536 -84.534149 -0.95584583
12.551848 -84.328964 -0.13490391
12.679757 -84.125 0.68761015
12.795238 -83.903259 1.5173602
12.901465 -83.667908 2.353332
13.008001 -83.431892 3.1916995
13.102077 -83.17775 4.0379882
13.184937 -82.907104 4.8919005
13.268707 -82.636421 5.7483497
13.334186 -82.33934 6.6160026
13.390289 -82.027924 7.4912238
13.446598 -81.715347 8.3697128
13.472881 -81.359711 9.2658882
13.500563 -81.004349 10.165274
13.505767 -80.616035 11.079586
13.498032 -80.207825 12.004612
13.473373 -79.774033 12.94268
13.42383 -79.303291 13.898335
13.357662 -78.806961 14.86784
13.257629 -78.260582 15.860775
13.129255 -77.671577 16.875015
12.968837 -77.034409 17.913258
12.747225 -76.307404 18.992424
12.472039 -75.500717 20.109789
12.123207 -74.58519 21.27807
11.649702 -73.487137 22.528524
10.961813 -72.076775 23.916689
9.8501091 -70.051208 25.571987
-2.8247623 -86.051483 -49.125973
-2.0575237 -86.636124 -48.372593
-1.6149311 -86.836723 -47.623718
-1.2847805 -86.904037 -46.875774
-0.95976448 -86.965485 -46.128384
-0.63568687 -87.026047 -45.381542
-0.32152748 -87.074966 -44.635029
-0.0096206665 -87.121368 -43.888897
0.30140877 -87.166916 -43.143173
0.61227226 -87.212433 -42.397877
0.92365265 -87.258774 -41.653015
1.2300663 -87.299286 -40.908344
1.5281639 -87.329849 -40.163563
1.8261471 -87.360413 -39.419064
2.1240253 -87.390961 -38.674843
2.421793 -87.421524 -37.930904
2.718092 -87.450394 -37.187149
3.0035381 -87.466072 -36.442703
3.2889194 -87.481735 -35.698399
3.5735989 -87.496597 -34.954163
3.8588734 -87.512253 -34.210152
4.1440945 -87.527916 -33.466286
4.4179668 -87.529556 -32.721226
4.6905079 -87.529564 -31.976017
4.9630384 -87.529556 -31.230816
5.2355871 -87.529572 -30.485603
5.5081263 -87.529556 -29.740395
5.7688198 -87.514717 -28.993441
6.0289183 -87.499054 -28.246239
6.2884054 -87.482559 -27.498787
6.5486135 -87.466904 -26.751282
6.8088598 -87.451225 -26.003637
7.0561323 -87.419044 -25.253515
7.3034983 -87.386841 -24.503094
