# .PCD v0.7 - Point Cloud Data file format
VERSION 0.7
FIELDS x y z
SIZE 4 4 4
TYPE F F F
COUNT 1 1 1
WIDTH 1421
HEIGHT 1
VIEWPOINT 0 0 0 1 0 0 0
POINTS 1421
DATA ascii
-0.22309303 0.16400959 0.85240984
-0.18598256 0.16406785 0.85271263
-0.22548492 0.1687078 0.85266834
-0.19301459 0.16876812 0.85297322
-0.18831988 0.16872819 0.85277134
-0.18598188 0.16871595 0.85270953
-0.22767459 0.170931 0.85216463
-0.23002772 0.17327668 0.8522768
-0.19512561 0.17322822 0.8520385
-0.19281442 0.17323841 0.85208863
-0.19061564 0.17335106 0.85264271
-0.18828778 0.17334767 0.85262597
-0.2254619 0.17566258 0.85258126
-0.18601066 0.17571619 0.8528415
-0.18358657 0.17562111 0.85238004
-0.22780228 0.17799936 0.85264254
-0.18815798 0.18484077 0.8520382
-0.22548594 0.18730254 0.85267216
-0.22538416 0.1918644 0.85228729
-0.19065797 0.19198704 0.85283208
-0.19525316 0.19425781 0.85259551
-0.19529569 0.19662468 0.85278124
-0.19301358 0.19666789 0.85296869
-0.21393783 0.19899181 0.85296375
-0.21377082 0.20115969 0.8522979
-0.19760317 0.20125638 0.85270756
-0.20680103 0.20348281 0.85229743
-0.20444801 0.20345317 0.85217327
-0.2022364 0.20356515 0.85264236
-0.20217907 0.21047799 0.85240072
-0.2351328 0.14801057 0.85394281
-0.22116914 0.14801231 0.85395288
-0.23265596 0.15024197 0.85339576
-0.23502633 0.15259686 0.85355616
-0.23022787 0.15482591 0.85301834
-0.22574349 0.15493985 0.8536461
-0.18374386 0.15716806 0.85311037
-0.23025359 0.1594941 0.85311365
-0.23277016 0.16195253 0.85381466
-0.1838863 0.16427162 0.85377169
-0.23029421 0.16649982 0.85326415
-0.18146655 0.16651398 0.85333669
-0.19080421 0.16886963 0.85348624
-0.18377632 0.16882508 0.85326105
-0.18146907 0.17116848 0.85334855
-0.23278761 0.17360236 0.85387868
-0.18618701 0.17355587 0.85365003
-0.18385239 0.17354859 0.85361427
-0.18146251 0.1758143 0.85331768
-0.17907014 0.17574918 0.85300159
-0.23046249 0.1782593 0.85388768
-0.18855567 0.17824917 0.8538391
-0.22568592 0.18048973 0.85342842
-0.18846691 0.18049158 0.85343713
-0.1839055 0.18058118 0.8538608
-0.22794336 0.18276082 0.85317063
-0.19073437 0.18276151 0.85317379
-0.18852866 0.18753199 0.85371673
-0.19312164 0.18979894 0.85344625
-0.18841314 0.19206843 0.85319364
-0.18610676 0.19208834 0.85328209
-0.22341228 0.19449343 0.85362959
-0.19308645 0.19441622 0.85329074
-0.22345077 0.1968542 0.85377669
-0.21632212 0.19904631 0.8531974
-0.20014136 0.19914483 0.85361964
-0.21885005 0.20155826 0.85398662
-0.21639477 0.20143962 0.85348392
-0.2094515 0.20380121 0.85363108
-0.20006396 0.20371966 0.85328948
-0.19768772 0.20599318 0.8530724
-0.20938982 0.20606738 0.85337973
-0.20010155 0.20841068 0.85344988
-0.19773695 0.21069629 0.85328484
-0.23518434 0.15037122 0.85412997
-0.1863969 0.15045616 0.85461235
-0.18410455 0.15281655 0.85478497
-0.23283046 0.1550106 0.85403591
-0.18628448 0.15502168 0.85409695
-0.21420717 0.15966684 0.85403758
-0.18409908 0.15980184 0.85475963
-0.18178044 0.16214184 0.85481274
-0.23066951 0.16444151 0.85465467
-0.23301427 0.16678198 0.8547101
-0.22822219 0.16901368 0.85421425
-0.17944735 0.1714593 0.85479844
-0.23542327 0.17382985 0.85499769
-0.18181583 0.1738261 0.85497916
-0.22821227 0.17599137 0.85417712
-0.17699063 0.17599343 0.85418707
-0.23068264 0.17609979 0.85470331
-0.2330111 0.17842858 0.85469848
-0.18404981 0.17839357 0.85453087
-0.18638329 0.18072693 0.85454994
-0.18169779 0.1807003 0.85442406
-0.23058021 0.18300785 0.8543238
-0.22606483 0.18545319 0.85486126
-0.1863001 0.18530291 0.85416853
-0.1839682 0.18529932 0.85415196
-0.18162552 0.18528463 0.85408425
-0.1794697 0.18546265 0.85490489
-0.22820078 0.18762368 0.85413414
-0.18639487 0.18772669 0.85460305
-0.19111374 0.19011573 0.85487074
-0.18634109 0.19000137 0.85435647
-0.22842409 0.1924683 0.85496992
-0.18412638 0.19244948 0.85488635
-0.19102229 0.19701216 0.85446173
-0.22141948 0.19944806 0.85491949
-0.21891886 0.19929308 0.85425514
-0.19810905 0.19944131 0.85489053
-0.19565578 0.20164487 0.85435355
-0.19806316 0.20405464 0.85469258
-0.19559403 0.20623742 0.8540839
-0.20255978 0.20854644 0.85400581
-0.19812344 0.20877765 0.85495263
-0.20493239 0.21092035 0.8541922
-0.21912038 0.148201 0.8550415
-0.19135375 0.1483575 0.8559444
-0.18897255 0.14831978 0.85572684
-0.23569424 0.15769707 0.85598183
-0.23323351 0.15994292 0.85551429
-0.23321117 0.16459113 0.85543233
-0.18199684 0.16466771 0.85583031
-0.18185626 0.16920264 0.8551693
-0.23087183 0.17158082 0.85540426
-0.2378505 0.17390051 0.85534525
-0.17953217 0.17387149 0.85520244
-0.23314771 0.17620204 0.85519958
-0.18650533 0.17851438 0.85510951
-0.18196876 0.1786373 0.85569835
-0.17952614 0.18085885 0.85517371
-0.22867142 0.18101154 0.8558957
-0.17733358 0.18100022 0.85584217
-0.18888062 0.18321922 0.85531056
-0.22867501 0.18568051 0.85590911
-0.17716336 0.18548778 0.8550207
-0.17499565 0.18566065 0.8558175
-0.18415605 0.18781918 0.8550241
-0.22617912 0.19020975 0.85529345
-0.1888714 0.19020425 0.85526878
-0.18186663 0.19019297 0.85521805
-0.1820223 0.19268896 0.85595012
-0.22628471 0.1949635 0.85569274
-0.19114961 0.19481277 0.85503119
-0.18895784 0.19495608 0.8556602
-0.22627863 0.19729067 0.85566974
-0.18887597 0.19720301 0.85528952
-0.18431291 0.19730973 0.85575241
-0.19601497 0.19968195 0.85592204
-0.22148737 0.2018403 0.85518157
-0.19365107 0.20198293 0.85578591
-0.21212786 0.20413756 0.85503989
-0.1959137 0.2042426 0.85547984
-0.21215686 0.20649649 0.85515678
-0.19135301 0.20668587 0.85594106
-0.20515959 0.20882322 0.8551392
-0.19591507 0.21123977 0.8554858
-0.20063403 0.21363039 0.85572094
-0.19366638 0.21599644 0.85585362
-0.19835696 0.21602339 0.85596037
-0.18450138 0.14847589 0.85662746
-0.18207185 0.14839886 0.85618305
-0.18454048 0.15084288 0.85680902
-0.1821834 0.15316027 0.85670763
-0.23587152 0.15548065 0.85662568
-0.18449043 0.15547174 0.85657662
-0.18205334 0.15771809 0.85609603
-0.23574927 0.16240151 0.85618168
-0.2311168 0.16942872 0.85631192
-0.17742042 0.17175274 0.85626131
-0.24060072 0.17420366 0.85683632
-0.17747732 0.17414258 0.85653585
-0.23573768 0.17639571 0.8561396
-0.17522733 0.17656282 0.85695058
-0.17982593 0.1788259 0.85660177
-0.23348413 0.18345979 0.85643357
-0.18451837 0.18351822 0.85670632
-0.18214022 0.183475 0.85650456
-0.17982017 0.18348993 0.8565743
-0.17757127 0.18357883 0.85698932
-0.23348407 0.18812875 0.85643339
-0.23114151 0.18812218 0.85640347
-0.18207598 0.18807803 0.85620248
-0.22890589 0.19053884 0.85677326
-0.1845278 0.1905337 0.85675013
-0.17982726 0.19050211 0.85660809
-0.17755024 0.19056432 0.85688782
-0.17523512 0.19058675 0.85698867
-0.17971899 0.19272098 0.85609233
-0.18684298 0.19518332 0.85665756
-0.18675645 0.19742696 0.85626084
-0.18203981 0.1973743 0.85603243
-0.17978102 0.19745626 0.85638785
-0.19383767 0.19984259 0.8566106
-0.22420816 0.20219174 0.85667062
-0.18919398 0.20220564 0.85672951
-0.19375667 0.20676109 0.85625261
-0.18920322 0.20688638 0.85677141
-0.2077332 0.2090674 0.85613918
-0.1961599 0.20916891 0.85655487
-0.20772326 0.211391 0.85609823
-0.19387533 0.21155858 0.85677695
-0.19153865 0.21155722 0.85677141
-0.18919429 0.21154723 0.85673094
-0.20318754 0.21386294 0.85665244
-0.19836833 0.21370241 0.85600942
-0.20080803 0.21615025 0.85646307
-0.19617736 0.21619266 0.8566311
-0.19156744 0.21626057 0.85690016
-0.21748142 0.14867388 0.85776979
-0.19392624 0.14854081 0.85700202
-0.18698791 0.14859629 0.8573221
-0.17995752 0.14858009 0.85722864
-0.23855558 0.15337002 0.85788083
-0.17995702 0.15325299 0.85722619
-0.18241902 0.16037317 0.85781562
-0.23858236 0.16274208 0.85797715
-0.23854941 0.16739637 0.85785866
-0.18005155 0.16736083 0.85767651
-0.23606862 0.1719694 0.85734147
-0.23371117 0.17195433 0.85726637
-0.23846671 0.17201348 0.85756123
-0.2385703 0.17676538 0.85793376
-0.17762585 0.1789618 0.85725272
-0.23615597 0.17904654 0.85765868
-0.23132095 0.18125953 0.8570683
-0.17530932 0.18131942 0.85735148
-0.18695192 0.18361478 0.85715711
-0.23135093 0.18595609 0.8571794
-0.17295651 0.18597645 0.85727322
-0.180013 0.1883615 0.85749292
-0.1777501 0.18844046 0.8578524
-0.17298479 0.1906812 0.85741341
-0.17066288 0.19069825 0.85749006
-0.23136686 0.19297898 0.85723841
-0.17757991 0.19293228 0.85703099
-0.23390438 0.19314481 0.85797507
-0.22920635 0.19546592 0.85789788
-0.18473643 0.19542512 0.85771883
-0.22914681 0.19775303 0.85767502
-0.17768338 0.19771969 0.85753042
-0.19164403 0.20232677 0.85724276
-0.18693502 0.20228827 0.85707963
-0.18471205 0.20241243 0.85760564
-0.21500678 0.20465939 0.8572256
-0.19402878 0.20471419 0.85745513
-0.22440697 0.20704547 0.85743022
-0.21501836 0.2070072 0.85727179
-0.18712965 0.20717627 0.85797191
-0.21047437 0.20947295 0.85779989
-0.21033871 0.21167465 0.85724699
-0.19640341 0.21410404 0.85761821
-0.20339057 0.21641408 0.85750842
-0.18941097 0.21646549 0.85771215
-0.19398099 0.22102076 0.85724396
-0.19170502 0.22109079 0.85751563
-0.18940479 0.22113425 0.85768414
-0.18250003 0.15108716 0.85819662
-0.24106626 0.15815991 0.85849422
-0.2386371 0.15810093 0.85817403
-0.18014173 0.15808842 0.85810614
-0.23626506 0.1604179 0.85805488
-0.24101819 0.16280769 0.85832304
-0.18022457 0.16284138 0.85850072
-0.23633082 0.16514169 0.85829371
-0.24343827 0.16754234 0.8586067
-0.23626143 0.16743208 0.8580417
-0.24349663 0.16992348 0.85881251
-0.23392664 0.16977394 0.85805672
-0.17546648 0.17212559 0.85812014
-0.24334975 0.17450014 0.85829449
-0.2411982 0.17697766 0.85896409
-0.24345717 0.17925836 0.85867333
-0.23879927 0.17927587 0.8587572
-0.23404846 0.18156306 0.85850358
-0.17324527 0.18160555 0.85870445
-0.24327299 0.18380043 0.85802376
-0.17549984 0.18385603 0.85828328
-0.233978 0.1861873 0.85824513
-0.23869319 0.18855542 0.85837573
-0.2362563 0.18847796 0.85802311
-0.17556262 0.18860255 0.8585903
-0.23404856 0.19092372 0.85850394
-0.23166083 0.19088452 0.85832763
-0.16845439 0.19084427 0.85814667
-0.17548966 0.19320299 0.85823351
-0.18245852 0.19548951 0.85800141
-0.18030503 0.1956906 0.85888398
-0.17078917 0.19551757 0.85812455
-0.17548002 0.19787094 0.85818636
-0.22460075 0.20020653 0.85817063
-0.19202332 0.2003859 0.85893941
-0.22711246 0.20269971 0.85882282
-0.18259747 0.20266005 0.8586548
-0.18016273 0.20255415 0.85820609
-0.17789187 0.20263214 0.85853654
-0.19194323 0.20498301 0.85858113
-0.22247337 0.2050803 0.85898858
-0.21772611 0.20501973 0.85873491
-0.18965966 0.2050444 0.85883826
-0.2270816 0.20735355 0.85870612
-0.2223727 0.2073279 0.8585999
-0.21997242 0.20727149 0.85836625
-0.2130796 0.20973577 0.85887611
-0.19434099 0.20972569 0.85883486
-0.18725619 0.21199691 0.8585521
-0.22474857 0.21204218 0.85873544
-0.2131055 0.2121027 0.85898054
-0.20595258 0.21431035 0.85844457
-0.19422224 0.21427676 0.85831004
-0.2224398 0.21675493 0.858859
-0.20608188 0.21678634 0.85898346
-0.19433407 0.21908209 0.85880429
-0.19897556 0.22137804 0.85862976
-0.1965522 0.22128475 0.8582679
-0.19191572 0.22601382 0.8584581
-0.18967482 0.22613201 0.85890698
-0.20144705 0.14891978 0.8591885
-0.17809033 0.14897279 0.85949439
-0.2156641 0.1490338 0.85984635
-0.23913324 0.1513973 0.85995817
-0.18051216 0.15138189 0.85987067
-0.1780737 0.15364414 0.85941416
-0.18268235 0.15592138 0.85905391
-0.1804519 0.15601753 0.85958362
-0.2436932 0.16303204 0.85950583
-0.23897356 0.16535145 0.85938394
-0.2413193 0.16769622 0.85939533
-0.18033385 0.16996479 0.85902131
-0.24138013 0.17008165 0.85961193
-0.24140409 0.17244194 0.85969728
-0.24604304 0.17475136 0.85953015
-0.17566532 0.17466238 0.85909253
-0.24600166 0.17940706 0.85938561
-0.2412564 0.17936233 0.85917133
-0.17576477 0.17944741 0.85957891
-0.24596891 0.18406764 0.85927117
-0.24120942 0.18401042 0.85900402
-0.23913638 0.18421723 0.8599695
-0.23654029 0.18402122 0.85905445
-0.23665072 0.18644987 0.85945553
-0.17097346 0.18636203 0.85905057
-0.24134897 0.1888026 0.859501
-0.17349195 0.18889621 0.85992718
-0.23679303 0.19359444 0.85997236
-0.17338295 0.19346263 0.85938686
-0.17111352 0.19354534 0.85975426
-0.23209456 0.19592999 0.85993463
-0.17818446 0.19593319 0.85994869
-0.23206046 0.1982449 0.85980833
-0.22742128 0.20063114 0.85999066
-0.18978089 0.20049039 0.85938728
-0.18757156 0.20063287 0.85999805
-0.18505855 0.20045003 0.85921437
-0.18283582 0.20058097 0.8597756
-0.18048829 0.20057662 0.85975695
-0.22497261 0.20522422 0.85959142
-0.22017047 0.20511623 0.85913908
-0.18743506 0.2051719 0.85937226
-0.22971062 0.20761415 0.85978532
-0.21781355 0.20744379 0.85907978
-0.1850673 0.20748608 0.85925496
-0.1828573 0.20763619 0.85987663
-0.18050626 0.20762797 0.85984254
-0.19211283 0.209849 0.85933983
-0.22507305 0.21000417 0.85997522
-0.22255474 0.21218228 0.85930282
-0.22024499 0.21221367 0.8594299
-0.19210869 0.21452922 0.8593213
-0.18980625 0.21457437 0.85950214
-0.2203186 0.2169715 0.85971713
-0.22507569 0.21703918 0.85998529
-0.19916964 0.21925122 0.85946727
-0.18744031 0.22157568 0.85939628
-0.19219913 0.22400412 0.85972583
-0.1898551 0.22400346 0.85972333
-0.2391555 0.14906706 0.86003822
-0.21359341 0.14922461 0.86094719
-0.21117352 0.14917298 0.86064929
-0.20868929 0.14907423 0.86007959
-0.2041401 0.1491763 0.86066848
-0.19934666 0.1491005 0.86023116
-0.19704583 0.14913382 0.86042339
-0.17605236 0.14923123 0.8609854
-0.17595983 0.15384413 0.86053282
-0.23914734 0.15609471 0.8600089
-0.17834546 0.15857102 0.8607257
-0.17601365 0.15858398 0.86079609
-0.24149232 0.16078371 0.86001152
-0.23921931 0.1608316 0.8602677
-0.18071885 0.16094144 0.86085522
-0.17832193 0.16324188 0.86061215
-0.17601846 0.16328123 0.86081958
-0.18056452 0.16549309 0.86012006
-0.24620622 0.16783378 0.86010021
-0.17836724 0.16797633 0.86083084
-0.24623588 0.17019875 0.8602038
-0.23917772 0.17018181 0.86011815
-0.23681384 0.17016792 0.86004794
-0.17362228 0.17261763 0.86057317
-0.24402849 0.17733294 0.86068839
-0.17351891 0.17720363 0.86006075
-0.2439722 0.18198314 0.86048985
-0.2417616 0.18208478 0.86097044
-0.23697801 0.18201578 0.86064416
-0.17130937 0.18203568 0.86073828
-0.17354327 0.18426266 0.86018157
-0.24407528 0.18675314 0.86085343
-0.24159645 0.18665093 0.86038232
-0.23930192 0.18669051 0.86056477
-0.17127538 0.18903688 0.86056751
-0.23935641 0.19142562 0.86076075
-0.23684077 0.19128884 0.86014575
-0.16650341 0.19129024 0.86015201
-0.24162833 0.19371228 0.86049587
-0.23929989 0.19372615 0.8605575
-0.16898155 0.19378799 0.86083215
-0.17589557 0.19599469 0.86021864
-0.17365213 0.19845536 0.86072111
-0.17821546 0.20065625 0.8600983
-0.22985828 0.20305732 0.86033797
-0.17601557 0.20316765 0.86080545
-0.18523028 0.20532458 0.86001176
-0.22291091 0.21017578 0.86067802
-0.21581484 0.21011946 0.86044735
-0.19000454 0.21010789 0.86040002
-0.22754811 0.21247055 0.86047024
-0.21570401 0.21235578 0.86000544
-0.18524607 0.21237542 0.86008501
-0.18302225 0.21251549 0.86065227
-0.18067403 0.2125129 0.86064172
-0.20873556 0.21476613 0.86027026
-0.22766481 0.21727294 0.86091155
-0.20890097 0.21728316 0.86095202
-0.18761218 0.2170894 0.86018431
-0.20186624 0.21963619 0.8609764
-0.19696303 0.21940288 0.86006182
-0.19229427 0.21942574 0.86015141
-0.19001189 0.21949764 0.86043328
-0.20174736 0.22185235 0.86046934
-0.19695038 0.22642151 0.86000657
-0.19472446 0.22655918 0.86052948
-0.19237731 0.23124874 0.86052287
-0.20658042 0.14924441 0.86106145
-0.1738788 0.14938015 0.8618446
-0.17852539 0.15638244 0.86159408
-0.17380789 0.16340898 0.86149311
-0.24420661 0.16572332 0.86131662
-0.24188934 0.16574425 0.8614254
-0.24894908 0.17045102 0.86147875
-0.178451 0.17040281 0.86123508
-0.24412543 0.17270932 0.86103028
-0.24647027 0.17740181 0.86102265
-0.24893664 0.17983505 0.86143571
-0.17380168 0.17984061 0.86146235
-0.24655764 0.18216038 0.86132789
-0.23968892 0.18229331 0.86195648
-0.24904945 0.18461494 0.86182606
-0.16913675 0.18692003 0.86162275
-0.24418707 0.18918629 0.86124772
-0.16903476 0.18915455 0.86110324
-0.24195942 0.19162893 0.86167496
-0.17378803 0.19626264 0.86139464
-0.16919115 0.19637775 0.86189991
-0.23486379 0.19863363 0.86149424
-0.17611249 0.2009318 0.86127943
-0.23019698 0.20100792 0.8616057
-0.23262595 0.20342681 0.86190349
-0.22786067 0.20571622 0.8616522
-0.18325402 0.2057377 0.86174214
-0.18083279 0.20565553 0.86139798
-0.22781451 0.21037105 0.86147761
-0.22074607 0.21034847 0.86138517
-0.21847947 0.21042687 0.8617062
-0.18783048 0.21029963 0.86118519
-0.18550837 0.21032837 0.86130285
-0.18311453 0.21027547 0.86108625
-0.1808496 0.21037114 0.86147803
-0.21832331 0.21262366 0.8610903
-0.22300155 0.21495529 0.86102796
-0.21129824 0.21498765 0.8611576
-0.18781689 0.21497898 0.86112285
-0.22088814 0.21518286 0.86193955
-0.21841729 0.21741161 0.86146098
-0.21138769 0.21742706 0.8615222
-0.18564042 0.21752642 0.86191595
-0.22307274 0.22206725 0.86130285
-0.22077747 0.22212006 0.86150771
-0.18549459 0.22205074 0.86123884
-0.19724822 0.22441614 0.86130714
-0.19483519 0.22434101 0.86101878
-0.18796974 0.22455072 0.86182368
-0.2206966 0.22673365 0.86119217
-0.20208332 0.22692059 0.86190224
-0.19963242 0.22680528 0.86146426
-0.1878999 0.22681561 0.86150348
-0.19268292 0.22926672 0.8618899
-0.17172398 0.14954947 0.86282146
-0.17864332 0.15178549 0.86216319
-0.2420958 0.15413515 0.86216062
-0.17643026 0.15660739 0.8628335
-0.24454944 0.15890265 0.86252576
-0.1740056 0.15889294 0.86247307
-0.24462585 0.16130415 0.86279529
-0.17877638 0.16130604 0.86280543
-0.17162591 0.1635675 0.86232877
-0.17638199 0.16832106 0.86259747
-0.17163885 0.17298281 0.86239374
-0.24919038 0.17531729 0.86231375
-0.17400053 0.17534459 0.86244798
-0.25173172 0.1801549 0.86296785
-0.17163722 0.18473479 0.86238557
-0.24676618 0.1870141 0.86205637
-0.24694453 0.18950079 0.86267942
-0.16693458 0.18943489 0.86237943
-0.24450055 0.19413044 0.86235332
-0.23502216 0.19641769 0.86207515
-0.23762472 0.19897915 0.86299282
-0.17163022 0.19883104 0.8623504
-0.23287266 0.20129065 0.86281759
-0.23503792 0.20348097 0.86213297
-0.17872176 0.20592861 0.86254179
-0.23267388 0.20816852 0.86208111
-0.17861719 0.2081579 0.86203712
-0.23037641 0.21291675 0.86227727
-0.22564815 0.21524104 0.8621726
-0.21408297 0.21542774 0.86292046
-0.1857274 0.21527781 0.86231983
-0.23052572 0.21775866 0.86283612
-0.21635325 0.21769755 0.86259395
-0.22331099 0.21995413 0.86222273
-0.20450515 0.21995027 0.86220759
-0.18803836 0.2199326 0.86213833
-0.22818124 0.22011784 0.86286443
-0.22585441 0.22014239 0.8629607
-0.18586516 0.22014207 0.86295944
-0.23274402 0.22233491 0.86234099
-0.23055376 0.22248963 0.86294109
-0.2280505 0.22234239 0.86237001
-0.22567877 0.22232166 0.86228961
-0.21860091 0.22229475 0.86218524
-0.20450771 0.22230329 0.86221838
-0.19983743 0.22468759 0.86234897
-0.21857281 0.22696592 0.86207438
-0.22341262 0.22710828 0.86261511
-0.1905088 0.22947782 0.86268348
-0.20700997 0.23187461 0.86285192
-0.20451573 0.23171344 0.86225218
-0.20233867 0.23191209 0.86299133
-0.19761905 0.23189464 0.86292642
-0.19510201 0.23169887 0.86219794
-0.1903781 0.23167031 0.8620916
-0.23784038 0.14736041 0.86377609
-0.23542564 0.14732273 0.86355513
-0.17661332 0.15206112 0.86372876
-0.17424458 0.15440279 0.86365765
-0.24236764 0.15666097 0.86312872
-0.17189215 0.1591128 0.86366647
-0.17651187 0.16138591 0.86323261
-0.24715869 0.16377592 0.86342758
-0.17887697 0.16610317 0.86329085
-0.17413765 0.16842452 0.86312765
-0.17647585 0.17076319 0.86305648
-0.24707304 0.17313015 0.86312836
-0.25199583 0.17563435 0.86387324
-0.24965411 0.17799845 0.86391848
-0.1717888 0.17783953 0.8631472
-0.24962056 0.18268371 0.86380237
-0.16944472 0.18255453 0.8631916
-0.25190026 0.1849833 0.86354566
-0.16717932 0.18735847 0.86364377
-0.1671084 0.19433846 0.86327738
-0.24020623 0.19916913 0.8638168
-0.23786929 0.20389356 0.86388105
-0.23071484 0.20616789 0.86354405
-0.23552081 0.20860875 0.86390424
-0.23073597 0.21089496 0.86362308
-0.23789905 0.21333943 0.86398911
-0.23531067 0.21312815 0.86313343
-0.23302951 0.21319366 0.86339873
-0.21884353 0.21548308 0.86314213
-0.21654785 0.21553992 0.86336976
-0.18370162 0.21565905 0.86384696
-0.23299277 0.21786629 0.86326259
-0.21427035 0.21797056 0.86367577
-0.18365403 0.2179573 0.8636232
-0.22121245 0.22020473 0.86320508
-0.21894647 0.22029226 0.86354816
-0.20720583 0.22032291 0.86366832
-0.23550791 0.22272575 0.86385691
-0.21647832 0.2225287 0.8630926
-0.20715901 0.22262681 0.86347312
-0.22125103 0.22494987 0.86335558
-0.20246129 0.22499122 0.8635143
-0.21899205 0.22504687 0.86372793
-0.23313665 0.22741911 0.8637957
-0.2307061 0.22734421 0.86351126
-0.21193245 0.22740506 0.86374235
-0.20952967 0.2273526 0.86354309
-0.20719956 0.22737868 0.86364216
-0.2047769 0.22730264 0.86335331
-0.19783257 0.22979045 0.86385876
-0.19549744 0.2298135 0.86394542
-0.23342067 0.14754328 0.86484802
-0.16966604 0.14980905 0.86431909
-0.17212369 0.15461235 0.86482984
-0.17433874 0.16155262 0.86412436
-0.17213084 0.16169123 0.86486578
-0.16978291 0.16405794 0.86491442
-0.24744369 0.16632105 0.86442322
-0.17686102 0.1664205 0.86494011
-0.2496834 0.16859861 0.86401981
-0.17207551 0.16870944 0.86458778
-0.17440516 0.1710396 0.86445349
-0.25446877 0.18042769 0.86427456
-0.17203724 0.18045294 0.8643955
-0.25230384 0.18292201 0.8649292
-0.25693366 0.18521802 0.86464143
-0.25456333 0.18520823 0.86459571
-0.16978171 0.1852752 0.86490834
-0.24983872 0.18755665 0.86455733
-0.25225145 0.18995552 0.86474955
-0.24971555 0.18981966 0.86413109
-0.2451124 0.19225973 0.86451137
-0.24737647 0.19454353 0.86418837
-0.23802063 0.19695437 0.86443067
-0.24279608 0.19700538 0.86465448
-0.24052963 0.19707949 0.8649798
-0.23564693 0.20165209 0.86436689
-0.17435408 0.20161325 0.86420035
-0.1744248 0.20405164 0.86455089
-0.23340045 0.21117578 0.86477309
-0.22848231 0.21569797 0.86400288
-0.18154635 0.21589622 0.864797
-0.23561186 0.21811251 0.8642382
-0.23320056 0.22041582 0.86403251
-0.23090941 0.22047697 0.86427224
-0.21687375 0.22057822 0.86466914
-0.21438901 0.22280236 0.86415404
-0.21200885 0.2227765 0.86405373
-0.20966227 0.22278574 0.86408961
-0.18390243 0.22296666 0.86479127
-0.22377545 0.22512195 0.86401606
-0.23561074 0.22753452 0.86423409
-0.22856548 0.22755647 0.86431742
-0.22623529 0.22758242 0.864416
-0.21676552 0.22753547 0.86423767
-0.2143774 0.22750112 0.86410725
-0.2214736 0.22988763 0.86422414
-0.21917242 0.22994487 0.86443931
-0.20967564 0.23222202 0.86414468
-0.17462884 0.15238391 0.86556226
-0.1746289 0.16654027 0.86556256
-0.25242683 0.17121713 0.86535078
-0.17232028 0.17130949 0.86581755
-0.25016239 0.17364144 0.86567736
-0.16981658 0.17352283 0.86508596
-0.1722142 0.17592129 0.86528456
-0.25254148 0.17837454 0.86574388
-0.16983642 0.1782598 0.86518699
-0.1699501 0.18073907 0.86576617
-0.2548399 0.18305016 0.86553508
-0.16750291 0.18300368 0.86531538
-0.25259846 0.18785644 0.8659392
-0.2478607 0.1925641 0.86588001
-0.16511449 0.19240391 0.86515975
-0.24551618 0.19729725 0.8659355
-0.1674467 0.19708981 0.86502504
-0.2429513 0.19948974 0.86520731
-0.23836374 0.20195769 0.86567676
-0.23605466 0.2067214 0.86586243
-0.23350802 0.20655648 0.86517167
-0.2382701 0.20895466 0.86533672
-0.23596628 0.21136265 0.86553824
-0.23595852 0.21607417 0.86550975
-0.23597191 0.2208052 0.86555892
-0.21241941 0.22084808 0.86572701
-0.20991448 0.22069553 0.86512899
-0.18403994 0.22077434 0.86543792
-0.23596108 0.22551359 0.86551917
-0.23351236 0.22542723 0.8651877
-0.23132718 0.22559611 0.86583591
-0.21010323 0.22561462 0.86590689
-0.2052729 0.22549413 0.86544448
-0.18630914 0.22538374 0.86502081
-0.21715316 0.23030235 0.86578315
-0.2053463 0.23029457 0.86575395
-0.2028175 0.23010296 0.86503357
-0.20053889 0.23019402 0.86537594
-0.18870346 0.23014396 0.86518776
-0.17488128 0.1478786 0.86681348
-0.17247626 0.14784241 0.86660135
-0.17012578 0.1478526 0.86666113
-0.24324866 0.15014654 0.86626625
-0.1678106 0.15025724 0.86690491
-0.2431927 0.15247276 0.86606699
-0.17242566 0.15252207 0.86634707
-0.17471905 0.15718383 0.86600935
-0.24808078 0.15966223 0.86664879
-0.17001912 0.15956439 0.86611772
-0.17016685 0.162066 0.86687034
-0.17251885 0.16678131 0.86681533
-0.17005055 0.16903923 0.86627787
-0.16780573 0.17388263 0.86687976
-0.25740606 0.18083616 0.8662312
-0.25742435 0.18321037 0.86629272
-0.25986087 0.18562543 0.86654329
-0.16771305 0.18559495 0.86640096
-0.25287542 0.19278839 0.86688858
-0.25283271 0.19511846 0.86674225
-0.250429 0.19508642 0.86659998
-0.24083161 0.2044092 0.8660658
-0.17719649 0.20689291 0.86658078
-0.17715609 0.20920736 0.86638319
-0.23847468 0.21149486 0.86607969
-0.17959732 0.2116628 0.86676741
-0.24091884 0.21392968 0.8663795
-0.23864168 0.21636786 0.86668617
-0.23392926 0.2163794 0.86673242
-0.23153259 0.21634753 0.86660475
-0.23855077 0.21864699 0.86635602
-0.18183336 0.21859857 0.86616415
-0.21494211 0.22101554 0.86638349
-0.23846866 0.2232932 0.86605781
-0.22904614 0.22567405 0.866135
-0.22666737 0.22565632 0.86606693
-0.21724105 0.22567368 0.86613357
-0.21492323 0.22571896 0.86630738
-0.21257068 0.22572838 0.8663435
-0.20781553 0.22569349 0.86620963
-0.1865323 0.22801444 0.86605692
-0.23624574 0.23050988 0.86656332
-0.23393594 0.23056144 0.86675715
-0.23144114 0.23042986 0.8662625
-0.22440015 0.23047391 0.86642808
-0.21493749 0.2304571 0.8663649
-0.21264537 0.23053238 0.8666479
-0.21026991 0.230518 0.86659384
-0.20779757 0.23039588 0.86613476
-0.241125 0.14793104 0.86712086
-0.17734531 0.14796306 0.86730856
-0.23183328 0.14803499 0.8677302
-0.17976433 0.14800824 0.86757338
-0.16800897 0.14806902 0.8679297
-0.17024393 0.15504734 0.86726302
-0.17275155 0.15754232 0.86798447
-0.24831741 0.16217913 0.86747545
-0.16788948 0.1645128 0.86731243
-0.16786177 0.16921318 0.86716926
-0.17037204 0.17172462 0.86791563
-0.25314033 0.17406656 0.86779672
-0.16559507 0.17404272 0.86767787
-0.17027576 0.17635649 0.86742514
-0.16798902 0.17880367 0.86782658
-0.25548232 0.19060737 0.86771697
-0.16548893 0.1904766 0.8671217
-0.25071347 0.19294311 0.86758429
-0.16547692 0.1951897 0.86705875
-0.24831115 0.19764312 0.86745358
-0.25063595 0.19997597 0.86731613
-0.24818374 0.19990504 0.86700851
-0.24583617 0.19991785 0.86706406
-0.17022966 0.19994694 0.86719024
-0.24121684 0.20237163 0.86745113
-0.17265478 0.20238262 0.86749828
-0.23889646 0.20713897 0.86761147
-0.24110347 0.20936678 0.86704344
-0.17967981 0.21648753 0.86716551
-0.23895763 0.22138548 0.86783361
-0.23889543 0.22842273 0.86760771
-0.22940905 0.23076101 0.8675074
-0.22709854 0.23081605 0.86771435
-0.18240942 0.14823598 0.86890829
-0.1657092 0.15049486 0.86827588
-0.17042607 0.15284666 0.86819082
-0.24626595 0.15528278 0.86857992
-0.24628553 0.15766291 0.86864895
-0.16820821 0.16008784 0.86895901
-0.1704746 0.16709353 0.86843807
-0.16570991 0.16942982 0.86827958
-0.16816369 0.17188554 0.86872894
-0.16343379 0.17426008 0.86876154
-0.25557521 0.17647998 0.86803252
-0.25578448 0.17899252 0.86874324
-0.16584377 0.17904152 0.868981
-0.26050282 0.18134822 0.86868399
-0.16802296 0.18120582 0.86800194
-0.26033592 0.1835984 0.86812747
-0.16583131 0.18376511 0.86891574
-0.25809962 0.18842612 0.8685652
-0.25563824 0.188357 0.86824656
-0.16566098 0.18830854 0.86802322
-0.24386355 0.20970787 0.86845601
-0.24161661 0.21218082 0.86888874
-0.24398012 0.21454494 0.86887115
-0.17986026 0.21433881 0.86803639
-0.24153784 0.21921471 0.86860549
-0.17995366 0.21918485 0.86848718
-0.23905799 0.22621159 0.8681981
-0.16831355 0.14596732 0.86950314
-0.1659704 0.14599104 0.86964452
-0.16591796 0.1483147 0.86936975
-0.16359176 0.15072459 0.86960125
-0.16127035 0.15077038 0.86986548
-0.16823658 0.15537675 0.86910552
-0.16591626 0.15542239 0.8693608
-0.17073543 0.15786582 0.86976683
-0.16591336 0.16015907 0.86934561
-0.168363 0.16260597 0.86975861
-0.25132516 0.16496587 0.86970103
-0.16591956 0.16490461 0.86937809
-0.25120139 0.16725415 0.86927283
-0.1682886 0.16727367 0.86937428
-0.25356731 0.16962124 0.86926055
-0.16357936 0.16967487 0.86953539
-0.25609684 0.17209826 0.86980414
-0.16601726 0.17211527 0.86989003
-0.16823953 0.17670123 0.86912078
-0.16602011 0.17686068 0.86990499
-0.26322302 0.1863334 0.86984825
-0.1659947 0.18631703 0.86977184
-0.25824383 0.19090028 0.86905044
-0.25120178 0.1980579 0.86927408
-0.16589327 0.19805023 0.86924034
-0.25367996 0.20051332 0.86964667
-0.1684089 0.2005938 0.86999571
-0.24403517 0.20511758 0.86906719
-0.17311545 0.2052936 0.86981291
-0.24187663 0.20766717 0.86982381
-0.24654689 0.20997708 0.86957079
-0.24167067 0.21696627 0.86908317
-0.18480845 0.22643404 0.86905181
-0.1848477 0.22885151 0.86923635
-0.23940879 0.23128363 0.86947215
-0.1638156 0.14618355 0.8707912
-0.16841015 0.15316556 0.87000221
-0.16621476 0.153328 0.87092489
-0.24928063 0.15568691 0.87084043
-0.16372983 0.15559658 0.87033522
-0.16371666 0.16032849 0.87026525
-0.16619182 0.16754888 0.87080467
-0.16378963 0.17226624 0.87065309
-0.25877613 0.17705113 0.8708418
-0.16608039 0.18166904 0.87022078
-0.26118526 0.18894558 0.8709597
-0.25618047 0.19349995 0.87008816
-0.25626004 0.19593251 0.87035841
-0.25399432 0.19838834 0.87072432
-0.2443267 0.20299086 0.87010539
-0.24912132 0.20540476 0.8702839
-0.24678123 0.20543152 0.87039733
-0.17564726 0.2078549 0.87061012
-0.24433641 0.21248639 0.87014002
-0.17801423 0.21259381 0.87057996
-0.18280868 0.2221448 0.87081015
-0.24219485 0.22455922 0.87096816
-0.18265224 0.22432634 0.87006491
-0.18275371 0.22919692 0.87054831
-0.1711576 0.14637262 0.87191743
-0.24480657 0.14873175 0.87181437
-0.18537875 0.14871795 0.87173355
-0.16401792 0.14874066 0.87186658
-0.2472311 0.15113758 0.871984
-0.16400616 0.15348279 0.87180412
-0.16151337 0.15574697 0.87117636
-0.24956152 0.15823877 0.87182164
-0.16870314 0.15818325 0.87151575
-0.16623881 0.15809888 0.87105089
-0.16394214 0.15817383 0.87146384
-0.16164792 0.16063003 0.87190205
-0.16624528 0.16285391 0.87108481
-0.16399346 0.16297577 0.87173665
-0.16386718 0.16522466 0.87106532
-0.25652662 0.17476201 0.87126386
-0.16166371 0.1749071 0.87198722
-0.16401184 0.17725292 0.87183428
-0.25882733 0.17946041 0.87101412
-0.16398631 0.17960145 0.87169862
-0.16399042 0.18435828 0.87172049
-0.16398886 0.18910882 0.87171215
-0.25182068 0.20329657 0.87141579
-0.24935855 0.20322582 0.87111259
-0.1711702 0.20342858 0.87198168
-0.25176078 0.20562299 0.87120855
-0.24958307 0.21053876 0.87189692
-0.17576686 0.21037117 0.87120289
-0.24712549 0.2152216 0.87161154
-0.17826554 0.21527034 0.87180895
-0.24474348 0.21759202 0.87158966
-0.24460754 0.21984565 0.87110555
-0.24226545 0.22224988 0.87122208
-0.24748789 0.15367392 0.8728897
-0.16170871 0.15355778 0.87222999
-0.1640881 0.167825 0.87223971
-0.16176076 0.17025545 0.87251067
-0.26410279 0.18457718 0.87275553
-0.16422787 0.18700483 0.87298268
-0.26163989 0.19165269 0.87247568
-0.16415471 0.19405718 0.87259376
-0.16654964 0.2012126 0.87267953
-0.24732099 0.20350309 0.87230104
-0.24736214 0.20829324 0.87244618
-0.24487771 0.20820288 0.87206769
-0.24726465 0.21296558 0.87210232
-0.18306418 0.22720928 0.87202722
-0.24250525 0.22960135 0.87208444
-0.16187781 0.14657819 0.87314206
-0.1619733 0.14904611 0.87365705
-0.15947729 0.15131888 0.87303001
-0.16189931 0.15849949 0.87325805
-0.25256717 0.16101636 0.873999
-0.16200596 0.16574967 0.87383324
-0.16191947 0.17280316 0.87336677
-0.16433528 0.18236479 0.87355357
-0.26430753 0.18948194 0.8734321
-0.25942451 0.19415279 0.87302369
-0.25009596 0.2085899 0.8736887
-0.18105865 0.2252945 0.87382001
-0.24300383 0.22769135 0.87387741
-0.18103212 0.23002459 0.87369198
-0.15982701 0.15403564 0.87494439
-0.15975128 0.1563465 0.87452984
-0.16206034 0.16342258 0.87412655
-0.25759402 0.17071958 0.87488919
-0.25972882 0.17293791 0.87404782
-0.25973195 0.17532253 0.87405831
-0.26219714 0.18014441 0.87433392
-0.1644429 0.19201513 0.87412566
-0.25994071 0.1969236 0.87476093
-0.16452405 0.1968777 0.87455708
-0.25754315 0.19929789 0.87471634
-0.16450788 0.19924201 0.87447107
-0.25505811 0.20398603 0.87437117
-0.17170939 0.20645374 0.87472838
-0.25036579 0.21358316 0.87463135
-0.24784182 0.21822821 0.874138
-0.24566257 0.22317861 0.87486273
-0.18122935 0.22312278 0.87464386
-0.17420226 0.14693601 0.87527353
-0.24835055 0.14943427 0.87593228
-0.25049883 0.15167698 0.87509608
-0.25055361 0.15409605 0.87528747
-0.25304374 0.15654643 0.8756482
-0.15997766 0.16134247 0.87576914
-0.25296322 0.16365495 0.87536949
-0.25534406 0.16842371 0.87535143
-0.16228487 0.16842106 0.87533766
-0.26256433 0.17801008 0.87555844
-0.16239093 0.1780815 0.87590975
-0.16237594 0.18045242 0.87582886
-0.26479694 0.18267708 0.87504947
-0.1623393 0.18518536 0.87563121
-0.1622918 0.18990342 0.87537497
-0.2649889 0.19235739 0.87568378
-0.25768954 0.20179687 0.87521356
-0.16946937 0.20424335 0.8754741
-0.25528246 0.20655096 0.87514025
-0.17416884 0.20892818 0.87510562
-0.25296688 0.21138036 0.87538218
-0.17425276 0.21141541 0.87552732
-0.17665218 0.21381752 0.8755911
-0.25066569 0.21622595 0.87567902
-0.17661661 0.21616071 0.87541479
-0.17421725 0.21614443 0.87534887
-0.2481506 0.22088583 0.87522709
-0.17911197 0.22106788 0.87594843
-0.17900404 0.22570719 0.87542063
-0.1813926 0.22809632 0.87543166
-0.16002871 0.14706613 0.87604862
-0.16010112 0.14952174 0.876445
-0.16012909 0.15910572 0.87659806
-0.2555671 0.16618268 0.8761161
-0.16015795 0.17108388 0.87675613
-0.2532084 0.20919374 0.8762179
-0.17923662 0.21883236 0.87655801
-0.24619466 0.22605193 0.87675768
-0.17928123 0.22844665 0.87677622
-0.24884121 0.14733712 0.87766284
-0.15794422 0.14734925 0.87773508
-0.25363281 0.15212598 0.87768662
-0.15788248 0.15207492 0.87739199
-0.25607124 0.15693904 0.87784433
-0.25360307 0.15928461 0.87758368
-0.16030127 0.17602105 0.87754071
-0.16261315 0.18788862 0.8771084
-0.26802924 0.18804184 0.87782365
-0.16027163 0.19033806 0.8773784
-0.26317167 0.19516687 0.87758362
-0.1649998 0.20222859 0.87708598
-0.16753806 0.20479965 0.87785864
-0.17232887 0.21198453 0.87788421
-0.17472377 0.21437986 0.87789387
-0.17223524 0.21665268 0.87740719
-0.17709945 0.2215372 0.87780803
-0.25149578 0.14749089 0.87857884
-0.24676676 0.14752719 0.87879503
-0.25159836 0.1499469 0.87893718
-0.15799943 0.14979418 0.87804192
-0.25398934 0.15473562 0.87892032
-0.16047359 0.16663183 0.87848401
-0.26108816 0.17144804 0.87862229
-0.16281185 0.18333064 0.87818009
-0.16055939 0.18588802 0.8789537
-0.16295345 0.19307353 0.87894386
-0.16286404 0.19536214 0.8784616
-0.16998821 0.20726235 0.8781544
-0.17238069 0.20965457 0.87814814
-0.17013769 0.21223623 0.87892658
-0.17008296 0.21695805 0.87864387
-0.25160855 0.21943521 0.87897283
-0.17731254 0.21940811 0.87886423
-0.17474762 0.21919577 0.87801367
-0.17484254 0.22170946 0.87849057
-0.17959118 0.22405343 0.87829202
-0.17729302 0.22657008 0.87876743
-0.17744675 0.14765047 0.87952942
-0.15830444 0.15727741 0.8797369
-0.25642022 0.16194518 0.87904066
-0.16064781 0.16441554 0.87943774
-0.25908235 0.16690879 0.87994409
-0.26142326 0.16927004 0.87975001
-0.16057141 0.17392161 0.87901956
-0.16788109 0.20761676 0.87965602
-0.16785286 0.21237665 0.87950814
-0.17272407 0.2148691 0.87989736
-0.16790114 0.21723393 0.87976116
-0.1726397 0.21955873 0.87946761
-0.17260174 0.22190724 0.87927425
-0.17747951 0.22920631 0.87969178
-0.16324076 0.14541224 0.88049358
-0.25451443 0.14785327 0.88073742
-0.25675967 0.15256238 0.88020432
-0.15839261 0.15496564 0.88022691
-0.15845892 0.16223161 0.88059539
-0.2592777 0.16943504 0.8806076
-0.16087042 0.16944443 0.88065642
-0.16092217 0.18150544 0.88093972
-0.16082922 0.18860033 0.88043082
-0.15838802 0.19095047 0.8802014
-0.26410064 0.1982564 0.88068146
-0.26161876 0.20059468 0.88040793
-0.259305 0.2054626 0.88070035
-0.17043848 0.2102114 0.88048047
-0.16564019 0.21261376 0.88049006
-0.17035434 0.21490537 0.88004583
-0.16802062 0.21498871 0.88038713
-0.1705305 0.22233163 0.88095582
-0.17755061 0.22450042 0.88004422
-0.17532043 0.22711779 0.88089174
-0.16577286 0.14552814 0.88119531
-0.16093954 0.14550163 0.88103479
-0.24520876 0.14803275 0.88180661
-0.25465047 0.15033434 0.88120818
-0.25706646 0.15514682 0.88125598
-0.25712588 0.15998812 0.88145971
-0.15861857 0.15999228 0.8814826
-0.25718516 0.16483155 0.88166291
-0.26430008 0.17438202 0.88134646
-0.2642487 0.17675006 0.88117516
-0.1610878 0.17928848 0.88184637
-0.26679865 0.18165472 0.88166422
-0.26902986 0.18634211 0.88110077
-0.15858783 0.18638673 0.88131183
-0.26921108 0.19127433 0.88169426
-0.16105725 0.19367437 0.88167918
-0.16111153 0.19614379 0.88197637
-0.16346806 0.19849011 0.88171959
-0.16345766 0.20088075 0.8816635
-0.16590263 0.20573902 0.88188517
-0.16588326 0.20811859 0.88178217
-0.16829307 0.21052995 0.88181472
-0.25459281 0.21514048 0.88100863
-0.1705896 0.22000648 0.88126111
-0.2522811 0.2224241 0.88132226
-0.16826327 0.222509 0.88165861
-0.24984454 0.22479565 0.88120157
-0.17553744 0.22499478 0.88198209
-0.17306755 0.22731258 0.88164723
-0.17068124 0.2273351 0.88173455
-0.15874282 0.14568961 0.88217306
-0.25756881 0.14822942 0.88297814
-0.15633528 0.14809155 0.88215685
-0.15645768 0.15061401 0.88284755
-0.25979677 0.15774824 0.88237053
-0.15877929 0.17218046 0.88237578
-0.15872863 0.17693442 0.88209426
-0.16127531 0.18431032 0.88287288
-0.15874833 0.1889801 0.8822037
-0.26230994 0.20353082 0.88273388
-0.25974992 0.2082199 0.88221145
-0.25756407 0.21080384 0.88296193
-0.16609806 0.21079478 0.88292396
-0.16610749 0.21562043 0.88297409
-0.1659922 0.21787596 0.88236123
-0.16603011 0.22273718 0.88256276
-0.15659721 0.15315698 0.88363487
-0.26008675 0.16274008 0.88335538
-0.15900971 0.16761293 0.88365632
-0.15894659 0.18199289 0.88330555
-0.15660514 0.1868875 0.88367963
-0.26727533 0.19642471 0.88323957
-0.16380428 0.20371509 0.88353306
-0.25766444 0.21329373 0.88330597
-0.16382581 0.21337661 0.88364923
-0.25533587 0.21817689 0.88357997
-0.16853519 0.22046141 0.8830834
-0.1638528 0.22304811 0.88379478
-0.17338827 0.22532612 0.88328099
-0.16859645 0.2277656 0.88340431
-0.16871364 0.14599437 0.88401842
-0.2579968 0.1508866 0.88444531
-0.26047176 0.1533352 0.88466311
-0.15676339 0.16296431 0.88457257
-0.26287416 0.1677981 0.88463259
-0.15921567 0.1750655 0.88480085
-0.26767012 0.17983696 0.88454413
-0.15908025 0.19419479 0.88404834
-0.16392793 0.20868924 0.88420004
-0.16407283 0.21852298 0.88498157
-0.16647351 0.22091985 0.8849197
-0.17115599 0.22555727 0.8841871
-0.25075045 0.22802147 0.88439673
-0.2437032 0.14858031 0.88506836
-0.26074558 0.15591037 0.88559312
-0.26083651 0.16079439 0.88590187
-0.26066691 0.16551636 0.88532591
-0.15934831 0.16555601 0.88553798
-0.15688241 0.17756625 0.88524419
-0.15926841 0.17994873 0.88509393
-0.15687919 0.18238857 0.88522601
-0.1592584 0.18476237 0.88503832
-0.15687399 0.18962122 0.88519663
-0.15686612 0.1920245 0.88515222
-0.15938216 0.1969777 0.88572615
-0.16408214 0.20647311 0.88503182
-0.16414864 0.21138367 0.88539058
-0.16890621 0.22577165 0.88502747
-0.16659686 0.22591145 0.88557547
-0.16650833 0.22820404 0.88510484
-0.25860277 0.14640793 0.88652265
-0.25631881 0.14648369 0.88698137
-0.15712032 0.15850198 0.88658667
-0.15713648 0.16818605 0.88667786
-0.15947753 0.17052186 0.8862561
-0.15705523 0.17293046 0.88621932
-0.26589751 0.17301907 0.88667339
-0.15714194 0.18511108 0.88670868
-0.16201651 0.21416895 0.88693047
-0.1644243 0.21657363 0.88687742
-0.16434494 0.22130172 0.88644934
-0.16186884 0.22363545 0.88612205
-0.16442567 0.22624545 0.88688475
-0.25889224 0.1441526 0.88751501
-0.25402552 0.14655551 0.88741624
-0.15721756 0.14650913 0.88713539
-0.26123431 0.14894708 0.88725305
-0.15726049 0.15622455 0.88737762
-0.15721048 0.16101103 0.88709545
-0.1573191 0.18048027 0.88770831
-0.16212749 0.19979994 0.88753802
-0.16206345 0.20213933 0.88718742
-0.16212006 0.2070483 0.88749731
-0.25399858 0.22635704 0.88732219
-0.15511306 0.15407528 0.888933
-0.26406142 0.16371146 0.88862807
-0.15501873 0.16366805 0.88839245
-0.26652658 0.17100574 0.88877106
-0.15495662 0.17812635 0.88803655
-0.15497237 0.18782802 0.88812679
-0.1622854 0.20483781 0.88840246
-0.16221532 0.20959057 0.88801885
-0.1622414 0.21204522 0.88816154
-0.16224605 0.21931447 0.88818699
-0.25666267 0.22173162 0.88817132
-0.16229993 0.22180916 0.88848197
-0.26198396 0.14452359 0.88979912
-0.16014685 0.14455226 0.88997567
-0.1551843 0.14929764 0.88934129
-0.2618905 0.1517458 0.88948166
-0.15513261 0.15167131 0.88904506
-0.26445809 0.15910558 0.88996291
-0.26419705 0.16621904 0.88908446
-0.15756451 0.16622065 0.88909304
-0.15529719 0.16881399 0.8899883
-0.1552439 0.17360634 0.88968295
-0.15761657 0.17597289 0.88938689
-0.15526335 0.18090437 0.88979435
-0.15513745 0.18318115 0.88907284
-0.15517585 0.19049871 0.8892929
-0.15764792 0.19540636 0.8895638
-0.1599858 0.20741768 0.88908064
-0.2595602 0.21728851 0.8898049
-0.25709268 0.22452818 0.88965935
-0.16243424 0.22684047 0.88921726
-0.16269414 0.14466017 0.89064002
-0.26222786 0.14708585 0.8906275
-0.15545768 0.15927455 0.890908
-0.15778491 0.171307 0.89033675
-0.15534928 0.18585807 0.89028686
-0.15530983 0.19308934 0.89006066
-0.15774687 0.19795531 0.89012206
-0.16020095 0.20284313 0.89027637
-0.16019253 0.21011235 0.89022958
-0.16030768 0.21512009 0.89086944
-0.16263615 0.21741492 0.89032257
-0.16021475 0.22470325 0.89035302
-0.26501513 0.16187172 0.89183742
-0.15556307 0.16181265 0.89151204
-0.15556651 0.17639726 0.89153171
-0.15308216 0.17876416 0.89121634
-0.15315272 0.18370743 0.89162713
-0.16037503 0.20063415 0.8912437
-0.16034159 0.20545007 0.89105785
-0.26236948 0.2127488 0.89110845
-0.16035059 0.21274866 0.89110792
-0.25800189 0.14501192 0.89280564
-0.25308064 0.14741413 0.89261532
-0.15569234 0.15708283 0.8922528
-0.15333688 0.16446149 0.89269924
-0.15567623 0.16679414 0.89216053
-0.15336008 0.16935383 0.89283437
-0.15322702 0.1740701 0.89205962
-0.15336314 0.18152605 0.89285213
-0.1533038 0.18875431 0.89250666
-0.15818557 0.203372 0.89259756
-0.26281428 0.21554261 0.89261919
-0.26023871 0.22028831 0.89213085
-0.1606202 0.22040568 0.8926062
-0.16064638 0.2228751 0.89275169
-0.15834972 0.14512856 0.89352381
-0.15354045 0.15980667 0.89388442
-0.15589091 0.17189462 0.89339083
-0.15108529 0.1792773 0.89377451
-0.15105577 0.18411389 0.89359987
-0.15349413 0.18655281 0.89361477
-0.15596339 0.19633825 0.89380616
-0.16086811 0.218309 0.89398384
-0.15615563 0.14779274 0.89490789
-0.26575878 0.15745029 0.89434004
-0.15114138 0.17446947 0.89410633
-0.15358721 0.17691661 0.89415658
-0.1535845 0.19153719 0.89414078
-0.15356347 0.19394793 0.89401841
-0.15602413 0.19885205 0.89415431
-0.15848632 0.20132096 0.89429462
-0.15844911 0.2085851 0.89408469
-0.15852635 0.21600172 0.89452046
-0.26618099 0.15525873 0.89576089
-0.15380435 0.16252209 0.89542073
-0.1538664 0.16747119 0.89578199
-0.15381564 0.17229785 0.89548653
-0.15137984 0.18206786 0.89551699
-0.15139157 0.18940562 0.89558631
-0.1538264 0.19916224 0.89554912
-0.15861371 0.20636211 0.89501345
-0.15872411 0.21382982 0.89563638
-0.26626611 0.14553845 0.89604735
-0.26646966 0.15053838 0.89673227
-0.15156658 0.1700722 0.89662164
-0.15150116 0.17732778 0.89623469
-0.14908411 0.18468888 0.89639062
-0.15155067 0.18716088 0.89652753
-0.15401191 0.19695836 0.89662915
-0.1564928 0.201894 0.89684016
-0.1564074 0.20422715 0.8963508
-0.26425683 0.14333093 0.89751869
-0.26177731 0.14331284 0.89740545
-0.15407933 0.15547727 0.89702171
-0.15409239 0.15793578 0.89709771
-0.15167615 0.16530353 0.89726985
-0.15177713 0.17275591 0.89786726
-0.1492584 0.17511971 0.89743859
-0.14929891 0.18006112 0.89768219
-0.15177117 0.19477524 0.89783198
-0.15905605 0.21183054 0.89750946
-0.26187655 0.22412184 0.89774561
-0.26687196 0.14831764 0.89808613
-0.15186965 0.16061655 0.89841455
-0.14944188 0.19003066 0.89854181
-0.15187907 0.19246463 0.89847028
-0.15684478 0.20724839 0.89885736
-0.15673561 0.20955259 0.89823174
-0.15921572 0.21938995 0.89841038
-0.15915127 0.22174908 0.89804673
-0.15703322 0.14617024 0.89993721
-0.15199575 0.16320087 0.8991605
-0.15208723 0.16820398 0.89970165
-0.1496807 0.17070879 0.89997774
-0.14963272 0.1780113 0.89968926
-0.14721917 0.18051134 0.89992672
-0.14959382 0.18286856 0.89945531
-0.14954521 0.18771109 0.89916307
-0.15199931 0.19997008 0.8991816
-0.1544401 0.2024077 0.89912206
-0.26479369 0.21961746 0.89934206
-0.26493385 0.22218648 0.89981812
-0.15947995 0.22466002 0.89990139
-0.25771794 0.14623168 0.9003154
-0.26744509 0.15354276 0.90001488
-0.15466413 0.15361294 0.90042621
-0.14975758 0.17325093 0.90043998
-0.14738956 0.17580849 0.90096837
-0.14727059 0.18548223 0.90024114
-0.15228191 0.19788629 0.9008534
-0.15460065 0.20507151 0.90005666
-0.26551196 0.14155358 0.9017815
-0.26800689 0.14403149 0.90190548
-0.15486421 0.15135406 0.90159106
-0.15737143 0.21286102 0.9018755
-0.26791853 0.21525554 0.90160811
-0.15732327 0.21525349 0.90159947
-0.15724251 0.21759933 0.90113664
-0.14769384 0.17863241 0.9028284
-0.14764005 0.18348747 0.90249956
-0.15260679 0.20323008 0.90277523
-0.15509954 0.21065593 0.90296113
-0.26351529 0.14180189 0.90336341
-0.15268555 0.15901735 0.90324122
-0.15021242 0.1663914 0.90317482
-0.1502578 0.1689043 0.90344763
-0.14540802 0.18131176 0.90391713
-0.14776371 0.18856543 0.90325552
-0.14772864 0.19098221 0.90304106
-0.15018627 0.19343871 0.90301752
-0.15022729 0.19595371 0.90326422
-0.26861104 0.21827593 0.90393859
-0.14802739 0.17163625 0.90486735
-0.14550425 0.18636286 0.90451533
-0.15046448 0.20119515 0.90469027
-0.15287487 0.20605224 0.90436113
-0.15533227 0.20850699 0.90431601
-0.26895404 0.14207335 0.90509278
-0.15311764 0.15699831 0.9057973
-0.14811273 0.17420316 0.90538901
-0.15800421 0.22358993 0.9055019
-0.2620123 0.14479452 0.9066835
-0.15568638 0.14968695 0.90637755
-0.15079376 0.16456391 0.90667015
-0.14588165 0.17695843 0.90686148
-0.14575812 0.18421817 0.90609354
-0.15075524 0.19911316 0.90643859
-0.15565811 0.21388476 0.90621299
-0.158108 0.22126691 0.90609664
-0.14602067 0.17960137 0.90772563
-0.26972035 0.2241257 0.90767163
-0.15859018 0.14514211 0.90886003
-0.27230057 0.14748393 0.90802526
-0.155991 0.14750437 0.90815109
-0.15105262 0.16237073 0.90822661
-0.14610061 0.18960238 0.90822262
-0.14855908 0.19453119 0.90811747
-0.15110072 0.2045224 0.90851587
-0.15365195 0.20957731 0.90895808
-0.15350403 0.21185084 0.90808302
-0.26985613 0.2217631 0.90812856
-0.14386038 0.18247402 0.90971148
-0.14638379 0.19245034 0.90998298
-0.1488114 0.19734117 0.90965986
-0.15627636 0.21721429 0.90981239
-0.15627773 0.21969622 0.90982038
-0.15383638 0.15525462 0.91004914
-0.1488954 0.17016171 0.9101733
-0.14405075 0.18768148 0.91091526
-0.15149404 0.2075377 0.91088074
-0.25852659 0.14810079 0.91182315
-0.15414914 0.15308455 0.91189933
-0.14912863 0.16794339 0.91159904
-0.14412312 0.18529151 0.9113729
-0.26374558 0.14326455 0.9126814
-0.27350056 0.14564784 0.91202682
-0.15417457 0.21526235 0.91204977
-0.15692103 0.14589356 0.91356552
-0.14691553 0.17572306 0.91328841
-0.15696564 0.22315422 0.91382521
-0.15204206 0.16094241 0.91417575
-0.14952755 0.20078239 0.91403753
-0.14963365 0.20341814 0.91468608
-0.27433607 0.21840815 0.91481292
-0.15460785 0.21836039 0.91461289
-0.26701853 0.14119188 0.91537297
-0.27450651 0.14368835 0.91538131
-0.15470944 0.15114625 0.91521388
-0.14728476 0.17366897 0.91558379
-0.14477447 0.18113796 0.91549176
-0.27447575 0.22101428 0.91527879
-0.26977283 0.14132763 0.91625309
-0.1573493 0.1437947 0.91605884
-0.15491903 0.14885291 0.91645378
-0.15248314 0.15891017 0.9168278
-0.14500485 0.19142404 0.91694868
-0.14736611 0.19623891 0.91608948
-0.14515151 0.17910773 0.91787606
-0.15267608 0.2116593 0.91798788
-0.16021016 0.144122 0.91814393
-0.26330188 0.1393709 0.91982245
-0.27326673 0.14184482 0.91960609
-0.26575825 0.14185101 0.9196462
-0.26318705 0.1468287 0.91942126
-0.15548925 0.1468935 0.91982698
-0.15293679 0.21452728 0.91955543
-0.26112673 0.13954841 0.92099386
-0.15564534 0.14453115 0.92075038
-0.25852636 0.14953834 0.92067379
-0.15312202 0.15455678 0.9206692
-0.15303899 0.15698123 0.92017001
-0.15050511 0.20711064 0.92001319
-0.26133654 0.13714804 0.92173392
-0.26638031 0.13967037 0.92179883
-0.25907272 0.13727979 0.92261946
-0.26935884 0.13991234 0.92339581
-0.25941634 0.13998012 0.9238432
-0.25176549 0.15251316 0.9234907
-0.15365128 0.15257274 0.92385143
-0.25955564 0.1350161 0.92433929
-0.26458457 0.13753036 0.92430341
-0.26459247 0.14257362 0.92433101
-0.1588756 0.14266828 0.9249447
-0.26456028 0.14507554 0.92421854
-0.15374282 0.15014386 0.92440182
-0.26253265 0.13525175 0.92595255
