# .PCD v0.7 - Point Cloud Data file format
VERSION 0.7
FIELDS x y z
SIZE 4 4 4
TYPE F F F
COUNT 1 1 1
WIDTH 1420
HEIGHT 1
VIEWPOINT 0 0 0 1 0 0 0
POINTS 1420
DATA ascii
-0.19270167 0.16709846 0.82188874
-0.21940398 0.16919866 0.82120854
-0.21284734 0.16932499 0.82182169
-0.21287122 0.1715844 0.8219139
-0.20592448 0.17139669 0.82101476
-0.20161091 0.17153481 0.82167637
-0.19932897 0.17149851 0.82150251
-0.18805099 0.17366247 0.82114637
-0.18600209 0.17383951 0.82198346
-0.1948287 0.17595749 0.82141101
-0.21736275 0.17607389 0.82195443
-0.22618495 0.18044335 0.82144648
-0.22385599 0.18037096 0.82111698
-0.22177768 0.18274097 0.82170951
-0.23072566 0.18497166 0.82166886
-0.22839335 0.18489672 0.82133597
-0.22170472 0.18491997 0.82143921
-0.2328721 0.18937527 0.82133979
-0.23062421 0.18936785 0.8213076
-0.22830412 0.18930039 0.82101506
-0.22613277 0.18935616 0.82125694
-0.22401571 0.18945897 0.82170284
-0.18824078 0.18952174 0.82197511
-0.18599139 0.18951277 0.82193619
-0.18358216 0.18933871 0.82118124
-0.18149567 0.18949734 0.82186919
-0.232857 0.19384038 0.82128656
-0.2308037 0.19399622 0.8219468
-0.18363622 0.1938726 0.82142305
-0.18135852 0.19383131 0.82124811
-0.17921615 0.19393544 0.82168931
-0.21763058 0.15610135 0.82296723
-0.19273756 0.15816657 0.82204181
-0.19054195 0.15820406 0.82223666
-0.21519212 0.16044238 0.82222146
-0.18829036 0.16043656 0.8221916
-0.21075986 0.16272239 0.82241744
-0.19274232 0.16265209 0.82206208
-0.21970607 0.16494849 0.82233924
-0.18600675 0.16488126 0.82200408
-0.22430983 0.16728002 0.82278168
-0.19066072 0.1672734 0.82274914
-0.18611282 0.16945915 0.82247281
-0.22189218 0.17163028 0.82213372
-0.20849922 0.17167398 0.82234305
-0.19728141 0.17166534 0.82230163
-0.19512464 0.17173988 0.82265872
-0.19281934 0.17168391 0.82239062
-0.19062102 0.17172299 0.82257783
-0.18837324 0.17171793 0.82255352
-0.21750602 0.17394796 0.82249624
-0.20410903 0.17399481 0.82271779
-0.22434308 0.17627722 0.82290363
-0.22195096 0.17615896 0.82235157
-0.21977782 0.17621383 0.82260776
-0.21514365 0.17609142 0.82203627
-0.20620851 0.17611519 0.82214719
-0.20409834 0.17622818 0.82267469
-0.20189925 0.17626604 0.82285148
-0.19721098 0.17608538 0.82200807
-0.19295436 0.17629068 0.82296646
-0.23100547 0.18071108 0.82266533
-0.2287212 0.18067804 0.82251495
-0.21964924 0.18059272 0.82212651
-0.21751091 0.180678 0.82251471
-0.21526621 0.18067577 0.82250458
-0.21310483 0.18074416 0.8228159
-0.19732961 0.18067533 0.82250255
-0.19516927 0.18075097 0.82284689
-0.19285342 0.18068266 0.82253593
-0.2264363 0.18288548 0.82235932
-0.2242794 0.18295459 0.8226701
-0.23312825 0.18510097 0.82224327
-0.21978962 0.18519299 0.82265198
-0.21753106 0.18517923 0.82259089
-0.20188785 0.18522744 0.82280505
-0.18396893 0.18525137 0.82291132
-0.22646904 0.18739581 0.82247823
-0.2220576 0.18969963 0.82274663
-0.21537624 0.18974076 0.82292497
-0.21313144 0.1897393 0.82291865
-0.19295329 0.18974929 0.82296193
-0.1792925 0.18953657 0.82203937
-0.22654051 0.19194025 0.82273775
-0.22858709 0.19401649 0.82203269
-0.22637422 0.19404037 0.8221339
-0.22207485 0.19420008 0.82281059
-0.21088511 0.19422264 0.8229062
-0.20843539 0.19403031 0.82209128
-0.20622207 0.19405627 0.82220125
-0.20413311 0.19420108 0.82281482
-0.19294682 0.19422929 0.82293433
-0.23087372 0.19853741 0.82219613
-0.22875714 0.19864562 0.82264423
-0.1839081 0.1986444 0.82263923
-0.18174432 0.19873036 0.82299519
-0.20206082 0.15395954 0.82350999
-0.19984834 0.15398441 0.82364303
-0.22456589 0.15624432 0.82372093
-0.22221148 0.15616766 0.82331681
-0.22004215 0.15622084 0.82359713
-0.18628968 0.15615581 0.82325435
-0.18420984 0.15629515 0.82398891
-0.21336387 0.15850794 0.82381606
-0.18856797 0.15842864 0.82340384
-0.21765397 0.16060516 0.82305568
-0.19079311 0.16290107 0.82332045
-0.22221598 0.16514792 0.82333344
-0.18862937 0.16746101 0.82367194
-0.22225949 0.16966969 0.82349467
-0.21101381 0.1718964 0.82340842
-0.22005919 0.17419428 0.82366091
-0.215452 0.17409985 0.82321441
-0.20651661 0.17413391 0.82337552
-0.20202252 0.17412934 0.82335389
-0.19987458 0.17421335 0.82375115
-0.18402247 0.17408639 0.82315081
-0.21319599 0.17633381 0.82316786
-0.21101257 0.17638431 0.8234036
-0.20871052 0.17633566 0.82317644
-0.19976218 0.17635953 0.8232879
-0.19094965 0.17651121 0.82399595
-0.2223033 0.17868376 0.82365698
-0.19316339 0.17872737 0.82385802
-0.21108842 0.18093826 0.82369953
-0.2066135 0.18095194 0.82376182
-0.20434615 0.18093255 0.82367355
-0.20195672 0.18080342 0.82308573
-0.19091579 0.18097128 0.82384986
-0.18416615 0.1809589 0.82379347
-0.1999314 0.18100104 0.82398534
-0.23133144 0.1832117 0.82382619
-0.22905125 0.18318404 0.82370186
-0.21995851 0.18309113 0.82328409
-0.23578455 0.18542732 0.82369298
-0.2154713 0.18533619 0.82328814
-0.21331894 0.18541598 0.82364261
-0.20426349 0.18534794 0.82334036
-0.19993128 0.18549304 0.82398486
-0.19765197 0.18546182 0.82384622
-0.1930088 0.18531606 0.82319868
-0.18860507 0.18539871 0.82356584
-0.18635325 0.18539183 0.82353526
-0.18186933 0.18539767 0.82356125
-0.17971087 0.18548688 0.8239575
-0.23352204 0.18765873 0.82363218
-0.23115046 0.18755609 0.82318169
-0.22890946 0.18755844 0.823192
-0.22443512 0.18756966 0.82324129
-0.22233395 0.18769026 0.82377058
-0.23576726 0.18990391 0.8236326
-0.22004847 0.18990119 0.8236208
-0.21765733 0.18977383 0.82306838
-0.21107107 0.18990375 0.82363188
-0.20658696 0.18990931 0.82365602
-0.20441528 0.1899776 0.8239522
-0.1907912 0.18983005 0.82331222
-0.17747307 0.18998758 0.82399547
-0.23353986 0.19216357 0.823695
-0.23124434 0.1921218 0.82351601
-0.22893822 0.19207035 0.82329541
-0.22452776 0.19213699 0.8235811
-0.22219904 0.19206457 0.82327068
-0.18857525 0.19210304 0.8234356
-0.18641697 0.192192 0.8238169
-0.18402986 0.19204433 0.82318389
-0.18181251 0.19207233 0.82330394
-0.1795994 0.19210559 0.82344651
-0.23573911 0.19437088 0.82353425
-0.22450554 0.1943627 0.82349956
-0.21995787 0.19431128 0.82328171
-0.21769021 0.19429028 0.82319272
-0.19074991 0.19427642 0.82313401
-0.18850194 0.19427206 0.82311553
-0.18625244 0.19426598 0.82308978
-0.23134564 0.19669747 0.82387674
-0.22669829 0.19880657 0.82331079
-0.20888515 0.19894044 0.82386518
-0.22678147 0.2033696 0.82361293
-0.22266385 0.15423678 0.8249929
-0.21578079 0.15413916 0.8244707
-0.21361442 0.15419763 0.82478344
-0.21139155 0.15421614 0.82488245
-0.19098608 0.15407978 0.82415313
-0.18876959 0.15410431 0.82428426
-0.21585441 0.15868802 0.82475197
-0.18649521 0.16082117 0.82416266
-0.21586691 0.16319376 0.82479972
-0.21343574 0.16305403 0.82409358
-0.18881287 0.16312915 0.8244732
-0.22704005 0.16763994 0.824552
-0.18664382 0.1676943 0.82481939
-0.22715156 0.17221966 0.82495695
-0.2247508 0.17210324 0.82439923
-0.18651889 0.17207569 0.82426727
-0.2225602 0.17439474 0.8246088
-0.20908199 0.17440167 0.82464159
-0.22694564 0.17655687 0.82420909
-0.18880394 0.17660509 0.82443422
-0.22467595 0.1787852 0.82412463
-0.22026062 0.17884816 0.82441485
-0.21807186 0.17889613 0.82463592
-0.21576969 0.17885108 0.82442832
-0.20686397 0.17892313 0.82476044
-0.19776401 0.17882612 0.82431322
-0.19548696 0.17879859 0.82418633
-0.18645997 0.17875966 0.82400692
-0.18431278 0.17885566 0.82444936
-0.18216173 0.17895022 0.82488531
-0.17991465 0.17895165 0.82489187
-0.23363315 0.18100953 0.82402402
-0.20904486 0.18111302 0.82449514
-0.18871535 0.18101467 0.82404739
-0.18651035 0.18105468 0.82422954
-0.2180279 0.18335481 0.82446969
-0.19792368 0.18346801 0.82497871
-0.19322568 0.18327786 0.82412368
-0.21136589 0.18567255 0.82478231
-0.20684603 0.18565153 0.82468891
-0.19549949 0.18555027 0.82423913
-0.19103949 0.1855828 0.82438362
-0.18885018 0.18788746 0.8246361
-0.18652111 0.18780567 0.8242771
-0.18432018 0.18785247 0.8244825
-0.20905977 0.19011636 0.82455397
-0.20220767 0.19001363 0.82410848
-0.197814 0.1901089 0.8245216
-0.19550836 0.19005238 0.82427651
-0.21130775 0.19236429 0.8245554
-0.19325234 0.1922901 0.82423741
-0.19095188 0.19223602 0.8240056
-0.21583509 0.19464087 0.82467818
-0.21349926 0.19456078 0.82433885
-0.20225684 0.19455372 0.82430887
-0.19560069 0.19463795 0.82466578
-0.23388311 0.19694312 0.82490563
-0.22926599 0.19684009 0.8244741
-0.22707389 0.19688803 0.8246749
-0.20903139 0.19683242 0.82444197
-0.20684907 0.19689427 0.82470107
-0.18426709 0.19678539 0.82424498
-0.182043 0.1968099 0.82434767
-0.23373756 0.19906771 0.82439226
-0.21809372 0.19914651 0.82471859
-0.20688096 0.19917299 0.82482821
-0.18663651 0.19916305 0.82478708
-0.17992449 0.19919924 0.82493699
-0.2291902 0.20351495 0.82420158
-0.22467273 0.20349304 0.82411283
-0.22250873 0.20356843 0.82441813
-0.22040731 0.20370318 0.82496387
-0.21815981 0.20370433 0.82496852
-0.22061636 0.15437765 0.82574636
-0.21837583 0.15438494 0.8257854
-0.2093657 0.15438031 0.82576054
-0.20702529 0.15431358 0.82540363
-0.20468079 0.15424231 0.8250224
-0.19794476 0.15425056 0.82506663
-0.19574438 0.15428889 0.82527161
-0.19348377 0.15428008 0.82522446
-0.18683456 0.15436193 0.82566231
-0.22722968 0.15653259 0.82524067
-0.18236141 0.15663669 0.82578951
-0.18010862 0.15663512 0.82578123
-0.21825875 0.15880167 0.82534266
-0.22732508 0.16109914 0.82558715
-0.22049832 0.161044 0.82530457
-0.18447404 0.16101788 0.8251707
-0.21822976 0.16327947 0.82523298
-0.18446159 0.16550528 0.82511503
-0.23411186 0.16787587 0.82571244
-0.23169129 0.16775291 0.82510769
-0.22965209 0.16790639 0.82586259
-0.22511674 0.17013262 0.82574153
-0.18448667 0.17002666 0.82522726
-0.18239121 0.17017031 0.82592446
-0.23193155 0.17242976 0.82596332
-0.22955193 0.17233354 0.8255024
-0.18458851 0.17237119 0.82568276
-0.2136759 0.17448188 0.82502085
-0.2115217 0.17456001 0.82539028
-0.18672143 0.17676106 0.82516235
-0.18460922 0.17689238 0.82577538
-0.2271869 0.17899363 0.82508534
-0.19118533 0.17897791 0.82501292
-0.21370237 0.17900179 0.82512301
-0.21157172 0.17910212 0.82558548
-0.20482771 0.17910844 0.82561463
-0.20251717 0.17905533 0.82536983
-0.18903786 0.17907396 0.82545567
-0.17783709 0.17912385 0.82568562
-0.23393209 0.18349019 0.82507843
-0.21610804 0.1836331 0.82572109
-0.21391471 0.18368243 0.82594287
-0.20480762 0.18359141 0.82553363
-0.20243126 0.18347713 0.82501978
-0.20034814 0.18362905 0.82570285
-0.19568686 0.1834792 0.82502908
-0.1913058 0.18359123 0.82553279
-0.18905024 0.18358611 0.82550973
-0.18686247 0.18364747 0.82578564
-0.18448932 0.18352591 0.82523906
-0.18235929 0.18364619 0.82577991
-0.2092697 0.18580754 0.82538193
-0.21819162 0.18799061 0.8250888
-0.23636323 0.1881332 0.82571459
-0.22050279 0.18804358 0.82532126
-0.2160911 0.18811992 0.82565635
-0.21386431 0.18814088 0.82574832
-0.20483606 0.18811807 0.82564825
-0.20261709 0.18814744 0.82577711
-0.19812186 0.18815374 0.82580477
-0.19362192 0.18815576 0.82581365
-0.18226334 0.18804909 0.82534546
-0.18002 0.1880558 0.8253749
-0.20027384 0.19031066 0.82539666
-0.22050117 0.19254154 0.82531518
-0.21822987 0.19252248 0.82523346
-0.2161641 0.1926862 0.82593524
-0.21367067 0.19246817 0.82500064
-0.20919463 0.19248803 0.82508582
-0.20697454 0.19251497 0.82520127
-0.2048689 0.19265012 0.82578063
-0.17776069 0.19254522 0.82533091
-0.20031334 0.19484887 0.82555944
-0.19810563 0.19489083 0.82573718
-0.17772217 0.19475271 0.82515204
-0.21163672 0.19716598 0.8258391
-0.20483083 0.19711538 0.82562715
-0.18003495 0.19707151 0.82544339
-0.22503164 0.19931816 0.82542938
-0.22042237 0.19921936 0.82502025
-0.21598716 0.19927706 0.82525921
-0.21161044 0.19939232 0.82573652
-0.2047268 0.19926465 0.82520783
-0.20036559 0.19940156 0.82577479
-0.19809654 0.19938332 0.82569927
-0.1957591 0.19929503 0.82533365
-0.19355491 0.19934192 0.82552785
-0.19139507 0.19943616 0.82591808
-0.18903339 0.19931978 0.82543612
-0.21597879 0.20376821 0.8252272
-0.19584318 0.20388201 0.82568812
-0.19354632 0.2038334 0.82549125
-0.19131349 0.20385186 0.82556599
-0.18913624 0.20393069 0.82588524
-0.22526614 0.15447919 0.82628953
-0.18485038 0.15458475 0.82685411
-0.17805016 0.15680462 0.82667488
-0.17580341 0.15681054 0.82670605
-0.22093162 0.15910639 0.82692635
-0.18699983 0.1590037 0.82639265
-0.18484029 0.15908381 0.82680899
-0.22984912 0.16129114 0.82657111
-0.22518942 0.16118127 0.82600808
-0.22298162 0.16121291 0.82617021
-0.18247394 0.16123807 0.82629913
-0.2209294 0.16361287 0.82691801
-0.18694365 0.16345981 0.8261444
-0.22519517 0.16568863 0.82602918
-0.18253464 0.16579792 0.82657397
-0.17800149 0.16577283 0.82644892
-0.17580283 0.16582388 0.82670337
-0.18484801 0.16810583 0.8268435
-0.23221737 0.17038803 0.82698119
-0.22995983 0.17038557 0.82696927
-0.22750077 0.17023228 0.82622522
-0.18035492 0.17037345 0.82691044
-0.22527921 0.17476033 0.82633746
-0.18243356 0.17471355 0.82611626
-0.18035921 0.17488566 0.82693011
-0.22987799 0.17708509 0.82667494
-0.22993053 0.17937946 0.82686388
-0.20943083 0.17919584 0.82601744
-0.20054279 0.17930162 0.82650506
-0.23648915 0.18147752 0.82615447
-0.18251416 0.1815493 0.82648122
-0.18017159 0.18145895 0.82606989
-0.23664653 0.18385175 0.82670426
-0.21186152 0.18385443 0.8267163
-0.20741801 0.18391071 0.82696939
-0.18020207 0.18374176 0.82620966
-0.1780141 0.18606091 0.82650745
-0.21192682 0.18841948 0.82697111
-0.2072695 0.18828419 0.82637733
-0.20049962 0.18827277 0.8263272
-0.19595437 0.18823397 0.82615691
-0.19143716 0.18822092 0.82609963
-0.23651372 0.19275737 0.8262403
-0.20290332 0.19292146 0.82694364
-0.1959468 0.19273047 0.82612503
-0.22316475 0.19740704 0.82684875
-0.2208114 0.19731812 0.82647634
-0.21848834 0.19725472 0.8262108
-0.20287761 0.19740467 0.82683885
-0.1893319 0.19738099 0.82673967
-0.18692274 0.19721681 0.82605201
-0.22303198 0.19954211 0.82635683
-0.21404827 0.19956668 0.82645857
-0.20277892 0.19956137 0.82643664
-0.23199877 0.201757 0.82620275
-0.22970653 0.20172173 0.82605833
-0.22744548 0.20171344 0.82602441
-0.18469749 0.20174906 0.82617027
-0.18253078 0.20184338 0.8265565
-0.18693314 0.20398322 0.82609797
-0.18466529 0.2039655 0.8260262
-0.23201419 0.20402265 0.82625765
-0.21409406 0.20411591 0.82663536
-0.20963833 0.20416541 0.82683581
-0.20738806 0.20416892 0.82685
-0.20061243 0.20415461 0.82679206
-0.1983283 0.2041233 0.82666528
-0.18247241 0.20403117 0.82629216
-0.22312802 0.20638849 0.82671267
-0.22527127 0.20853993 0.82630831
-0.22311024 0.20862536 0.8266468
-0.22092259 0.20868738 0.82689255
-0.22782293 0.15468591 0.8273952
-0.23013821 0.15698214 0.82761073
-0.22327895 0.15917288 0.82727188
-0.23475869 0.16156876 0.82799381
-0.2323572 0.16146834 0.82747918
-0.1805241 0.16150872 0.82768613
-0.17370966 0.16146594 0.82746691
-0.17141455 0.16142868 0.82727593
-0.18504074 0.16376871 0.82770562
-0.1804114 0.16591735 0.82716942
-0.173797 0.16606048 0.82788295
-0.23682347 0.16820318 0.82732236
-0.18265939 0.16816586 0.82713884
-0.18059202 0.16834044 0.82799751
-0.1783296 0.17059225 0.82797235
-0.23453894 0.17269185 0.82721877
-0.1826628 0.1726784 0.82715434
-0.22774015 0.17492045 0.82709461
-0.17821915 0.17499763 0.82745951
-0.23688336 0.17726859 0.82753158
-0.234589 0.1772394 0.82739532
-0.23232096 0.17722972 0.82735014
-0.18265331 0.17717856 0.8271113
-0.1805796 0.1773562 0.82794058
-0.17827538 0.17730907 0.82772052
-0.23235029 0.1795076 0.82745457
-0.17826465 0.1818106 0.82767075
-0.20971377 0.18394718 0.82713336
-0.20972589 0.18846734 0.82718116
-0.17828754 0.1886031 0.82777703
-0.198469 0.19299333 0.82725173
-0.20078073 0.19304793 0.82748574
-0.2368113 0.19750996 0.82727987
-0.22549114 0.19747056 0.82711482
-0.21656033 0.19755039 0.8274492
-0.21431589 0.19756058 0.82749188
-0.20076331 0.19754197 0.82741392
-0.19857728 0.19761099 0.82770306
-0.19627899 0.19756861 0.82752556
-0.19396454 0.1975088 0.82727498
-0.19172896 0.19752882 0.8273589
-0.23694219 0.1998754 0.82773709
-0.22557966 0.20205902 0.82743955
-0.22343706 0.20216112 0.82785767
-0.22117929 0.20216006 0.82785332
-0.21879977 0.20204656 0.82738853
-0.21654889 0.2020507 0.82740551
-0.2097346 0.20200431 0.82721555
-0.20766068 0.20218046 0.82793689
-0.20083606 0.20212598 0.82771379
-0.198549 0.20209458 0.82758522
-0.19625486 0.20205517 0.82742381
-0.19400831 0.20206441 0.82746166
-0.18953702 0.20210682 0.82763529
-0.1873138 0.20214218 0.82778013
-0.21200664 0.20427573 0.82728261
-0.20520049 0.20423488 0.8271172
-0.20308168 0.20437153 0.82767057
-0.22555266 0.20654522 0.82734048
-0.22111018 0.20660868 0.8275947
-0.22794981 0.20893054 0.827856
-0.23712946 0.15261409 0.82839137
-0.23499084 0.15269169 0.8288126
-0.23270208 0.15267229 0.82870734
-0.23044656 0.15267456 0.82871962
-0.22823963 0.15270936 0.82890856
-0.17626035 0.15269947 0.82885486
-0.17386425 0.15257943 0.82820326
-0.18295322 0.15488675 0.82846946
-0.1806908 0.15488318 0.82845038
-0.17837308 0.15483156 0.82817423
-0.17611207 0.15482843 0.82815754
-0.1739509 0.15491414 0.82861602
-0.23257767 0.1571061 0.8282643
-0.17390089 0.15712765 0.82837784
-0.22810489 0.15939362 0.82841921
-0.22588821 0.15942289 0.82857126
-0.18289723 0.15935449 0.82821584
-0.18074226 0.15944505 0.82868642
-0.17847146 0.1616931 0.82863098
-0.17609523 0.16158524 0.82807833
-0.16949306 0.16174696 0.82890707
-0.23940922 0.16391924 0.82846642
-0.23491099 0.16393201 0.82853097
-0.22595912 0.16399145 0.82883137
-0.22352016 0.16385972 0.82816559
-0.18298435 0.16394773 0.82861042
-0.17402814 0.16402164 0.82898396
-0.22823597 0.16626354 0.82889527
-0.23952784 0.16851923 0.82887691
-0.17837319 0.16837648 0.82817471
-0.23485199 0.17066447 0.82832289
-0.17618646 0.17070249 0.82850736
-0.18070808 0.17296551 0.82852966
-0.23722012 0.17300275 0.82870805
-0.2304541 0.17526986 0.82874674
-0.17622104 0.17525363 0.82866997
-0.23940341 0.17746454 0.82844633
-0.23481531 0.17966792 0.82819355
-0.17629081 0.17984246 0.82899809
-0.17838162 0.18418747 0.82821387
-0.23952149 0.18658938 0.82885492
-0.23956025 0.19565833 0.82898903
-0.1762162 0.19557764 0.8286472
-0.21446471 0.20221211 0.82806647
-0.21223402 0.20223737 0.82816988
-0.20552501 0.20229973 0.82842529
-0.20337154 0.2024039 0.82885188
-0.19189285 0.20221201 0.82806605
-0.18074797 0.20236987 0.82871252
-0.18062584 0.20449056 0.8281526
-0.22799543 0.20671527 0.82802165
-0.21906003 0.20680292 0.82837272
-0.19436768 0.20695812 0.82899439
-0.1920649 0.20691171 0.82880849
-0.21899453 0.20899843 0.828125
-0.21691155 0.20916656 0.8287912
-0.19199748 0.2090975 0.82851762
-0.19421792 0.21808849 0.82835567
-0.23960492 0.15275268 0.82914364
-0.22611965 0.15280363 0.82942021
-0.17856967 0.15274224 0.82908696
-0.17179574 0.15274751 0.82911563
-0.16960965 0.15281413 0.82947725
-0.23297468 0.15511273 0.82967818
-0.23070085 0.15510447 0.82963407
-0.17193948 0.15513724 0.82980931
-0.23979181 0.15739557 0.82979035
-0.23737988 0.15729614 0.82926613
-0.23510456 0.15728618 0.82921368
-0.17178641 0.15725905 0.82907063
-0.16965169 0.15737517 0.82968283
-0.23303699 0.15967856 0.82990009
-0.17638043 0.15958607 0.82941943
-0.17416847 0.15963091 0.82965243
-0.17188971 0.15961489 0.82956916
-0.23754106 0.16192691 0.82982922
-0.23754358 0.16419064 0.82983804
-0.23292288 0.16412251 0.8294937
-0.22848815 0.1641853 0.8298111
-0.18097839 0.16417697 0.82976902
-0.17865597 0.1641213 0.82948762
-0.17637491 0.16410267 0.82939351
-0.17192937 0.1641753 0.82976055
-0.23511797 0.16633689 0.829261
-0.23301882 0.16645209 0.82983536
-0.17182882 0.16633976 0.82927531
-0.17635731 0.16860744 0.82931077
-0.23754959 0.17098098 0.82985902
-0.17407013 0.1708419 0.82918406
-0.17867494 0.17318389 0.82957572
-0.23758171 0.17552882 0.82997125
-0.23530023 0.17551458 0.82990384
-0.23295403 0.17545129 0.82960463
-0.17647481 0.17776808 0.82986331
-0.23733717 0.17986824 0.82911694
-0.23981157 0.18229122 0.82985872
-0.17644899 0.18678902 0.82974184
-0.23956713 0.19114444 0.82901287
-0.17855123 0.19792095 0.82900131
-0.17874691 0.20040005 0.82990986
-0.20341817 0.20696999 0.82904196
-0.2307623 0.20717299 0.82985508
-0.21701092 0.20700216 0.82917082
-0.21491116 0.20715681 0.82979029
-0.21268806 0.20719458 0.82994157
-0.20799376 0.20702565 0.82926488
-0.20583612 0.20712909 0.82967925
-0.20123224 0.20704603 0.82934654
-0.19898222 0.20705712 0.82939094
-0.19675599 0.20709348 0.82953662
-0.18995483 0.20707428 0.82945973
-0.21481797 0.20932789 0.82943046
-0.21247295 0.20924503 0.82910216
-0.21034302 0.2093745 0.82961518
-0.20797037 0.20926258 0.82917166
-0.20591347 0.20946936 0.82999104
-0.20359206 0.2094087 0.82975066
-0.2013786 0.20945895 0.82994974
-0.19449826 0.20935839 0.82955134
-0.18986244 0.20923346 0.82905632
-0.21267876 0.21397209 0.82990527
-0.21484184 0.21839574 0.82952267
-0.19912395 0.21851659 0.82998168
-0.19666398 0.21829727 0.82914865
-0.16750641 0.15295821 0.83025932
-0.24234511 0.15305588 0.83078939
-0.24010116 0.15533383 0.83086085
-0.23777097 0.15529111 0.83063239
-0.23555535 0.15532313 0.83080363
-0.16987331 0.15531623 0.83076674
-0.24240166 0.15762185 0.83098328
-0.23092398 0.15978177 0.83043647
-0.17883395 0.1597582 0.83031398
-0.16986407 0.15983661 0.8307215
-0.23999454 0.16658379 0.8304919
-0.23762587 0.1665103 0.83012551
-0.23097761 0.16661136 0.83062935
-0.17433019 0.16883354 0.83042282
-0.24007539 0.17343356 0.83077168
-0.17663065 0.17339692 0.83059615
-0.24006076 0.17568742 0.83072108
-0.17444916 0.17574419 0.83098954
-0.24000928 0.18017758 0.83054292
-0.17658894 0.18467365 0.83039999
-0.24012689 0.18932602 0.8309499
-0.17656358 0.19143677 0.83028072
-0.24009055 0.19382675 0.83082414
-0.23552063 0.20285062 0.8306812
-0.17893809 0.20514365 0.83079749
-0.2105277 0.20729494 0.8303436
-0.18793029 0.20733513 0.83050454
-0.23094602 0.20960179 0.83051574
-0.19914587 0.20949005 0.830073
-0.19690287 0.20951095 0.83015585
-0.18789946 0.20956457 0.83036828
-0.2265411 0.21424562 0.83096611
-0.22422719 0.21419898 0.83078521
-0.22196454 0.21420082 0.83079243
-0.21504182 0.21407251 0.83029473
-0.21047039 0.21402684 0.83011758
-0.20839508 0.21421953 0.83086497
-0.19936492 0.21425076 0.83098608
-0.19694734 0.21408504 0.83034337
-0.19477044 0.21418014 0.8307122
-0.19240126 0.21406357 0.83026004
-0.19016773 0.2140969 0.83038932
-0.19482227 0.21650213 0.83093327
-0.21277119 0.21859145 0.830266
-0.20842457 0.21878009 0.83098251
-0.20387216 0.21875632 0.83089221
-0.19248547 0.21868554 0.83062339
-0.21286638 0.22321759 0.8306374
-0.22451214 0.15324961 0.83184099
-0.18125829 0.15310431 0.8310523
-0.16552685 0.15322073 0.83168423
-0.16770352 0.15766986 0.83123636
-0.23569795 0.15994918 0.83130658
-0.23108366 0.16442265 0.8310107
-0.17219973 0.17122951 0.8310653
-0.17445609 0.17348592 0.8310225
-0.24257305 0.17813385 0.8315708
-0.1768112 0.1826397 0.83144516
-0.24021409 0.18486306 0.83125168
-0.17687725 0.18950963 0.83175576
-0.23563376 0.20521344 0.8310802
-0.18588024 0.20757386 0.83146083
-0.18362042 0.20758133 0.83149076
-0.1858888 0.20984995 0.83149904
-0.18367229 0.20990714 0.83172566
-0.17912197 0.20988835 0.83165121
-0.22452608 0.21221688 0.83189261
-0.22219373 0.21215507 0.83165032
-0.21317595 0.21220484 0.8318454
-0.21088222 0.21217842 0.83174187
-0.19280258 0.21224219 0.83199179
-0.21995845 0.21445289 0.83177006
-0.2177027 0.21446423 0.83181405
-0.18809958 0.2143195 0.83125269
-0.18599139 0.21450135 0.831958
-0.19955504 0.21672237 0.83177853
-0.19712773 0.21654658 0.83110386
-0.19277403 0.21674584 0.83186859
-0.21992083 0.21894997 0.83162779
-0.2175072 0.21880235 0.83106709
-0.2106998 0.21879059 0.83102238
-0.20621996 0.21884429 0.83122641
-0.20179681 0.21896197 0.83167332
-0.2152628 0.2233548 0.83114797
-0.2107053 0.22332688 0.83104408
-0.20856285 0.2234585 0.83153385
-0.20185351 0.22355878 0.83190703
-0.19950758 0.22347109 0.8315807
-0.1972336 0.22346291 0.83155024
-0.19502571 0.22353029 0.831801
-0.2085443 0.22797148 0.83145988
-0.20187548 0.2281189 0.83199757
-0.20856583 0.23252833 0.83154571
-0.24054429 0.15108258 0.8323943
-0.18387398 0.15339661 0.83263892
-0.24291132 0.15568337 0.83273047
-0.16790989 0.15559526 0.83225918
-0.16568744 0.15790784 0.8324911
-0.23819464 0.16010424 0.83211249
-0.24063562 0.1624891 0.83271033
-0.16790186 0.16239332 0.83221942
-0.24270302 0.16462162 0.83201635
-0.17017111 0.16466254 0.83222312
-0.17021944 0.16697843 0.83245939
-0.17254394 0.16930191 0.8327266
-0.24052395 0.17148882 0.83232391
-0.17482558 0.18747355 0.83278257
-0.17476504 0.19194712 0.8324942
-0.17694315 0.19411638 0.83206564
-0.24071418 0.19887136 0.83298218
-0.176953 0.19866361 0.83211195
-0.23390386 0.20795491 0.83298719
-0.18152754 0.20778006 0.83228678
-0.1792576 0.20777862 0.83228099
-0.18147404 0.20998685 0.8320415
-0.17708455 0.21016076 0.83273059
-0.22684918 0.21226881 0.83209622
-0.22013471 0.21235564 0.83243656
-0.21797188 0.21245921 0.83284253
-0.21552378 0.21228398 0.83215564
-0.20869844 0.21226326 0.8320744
-0.19980486 0.21245341 0.83281982
-0.19755749 0.21247789 0.83291578
-0.19527651 0.21246639 0.83287066
-0.19053891 0.21224688 0.83201021
-0.2064566 0.21455866 0.83218032
-0.20433465 0.21471253 0.83277708
-0.20194092 0.21458109 0.83226728
-0.21553034 0.21682723 0.83218098
-0.21332121 0.21688749 0.83241224
-0.21105491 0.21689028 0.83242297
-0.20885299 0.21696003 0.83269066
-0.22457272 0.21906519 0.8320654
-0.22238795 0.21914729 0.83237725
-0.19071652 0.21925484 0.83278573
-0.21563163 0.22146805 0.8325721
-0.21333197 0.22143669 0.8324542
-0.21099183 0.2213622 0.83217418
-0.20876388 0.22140507 0.83233535
-0.20656088 0.22147563 0.83260059
-0.2043471 0.22153609 0.83282787
-0.19979355 0.22152141 0.83277267
-0.19748707 0.2214805 0.83261889
-0.19510478 0.22135262 0.83213818
-0.2202161 0.22378379 0.8327443
-0.21776059 0.22359324 0.83203524
-0.20647474 0.22365187 0.8322534
-0.20424321 0.22369245 0.83240443
-0.21101606 0.22819352 0.83226973
-0.20646922 0.22818294 0.83223116
-0.20418972 0.22817069 0.83218646
-0.19975315 0.22828525 0.83260429
-0.20889696 0.23062725 0.83286595
-0.21119863 0.23293215 0.83298981
-0.2064835 0.23273611 0.83228874
-0.20417842 0.23269463 0.83214039
-0.24326777 0.15136537 0.83395243
-0.2385098 0.15123124 0.83321345
-0.22270773 0.15356891 0.83357418
-0.18629853 0.15352428 0.83333188
-0.165969 0.1559031 0.83390582
-0.24315058 0.16038094 0.83355063
-0.24089974 0.16039513 0.8336243
-0.16821423 0.16042271 0.83376771
-0.24313392 0.16264193 0.83349353
-0.24315771 0.16947444 0.83357513
-0.1727313 0.17403044 0.8336308
-0.17490752 0.17847703 0.83317292
-0.17492241 0.18076353 0.83324385
-0.24318574 0.19221851 0.83367121
-0.17722248 0.2012378 0.83337915
-0.17943856 0.20344645 0.83312112
-0.17730117 0.20587249 0.83374923
-0.17733161 0.20818089 0.83389235
-0.20667115 0.21251087 0.83304507
-0.20447885 0.21259244 0.83336478
-0.20220502 0.21259011 0.83335567
-0.18856388 0.21257707 0.83330458
-0.22959377 0.21498308 0.83382642
-0.18407185 0.21490793 0.83353496
-0.22482827 0.21704383 0.83301228
-0.22269879 0.2171815 0.83354068
-0.21825452 0.21728098 0.83392251
-0.20668063 0.21706232 0.83308327
-0.20443942 0.2170938 0.83320409
-0.20222279 0.2171524 0.83342898
-0.19078267 0.21706006 0.83307457
-0.22735102 0.21955794 0.83393699
-0.20226845 0.22174603 0.83361709
-0.19307232 0.22389437 0.83315581
-0.21125515 0.22618087 0.83321273
-0.20893191 0.22612455 0.83300525
-0.20682441 0.22630306 0.83366287
-0.20226084 0.22628212 0.83358574
-0.2134978 0.22842152 0.83310133
-0.1976552 0.2284836 0.83332771
-0.20669225 0.2307004 0.83313012
-0.20453426 0.23082793 0.83359063
-0.20211992 0.23293638 0.83300495
-0.21367121 0.23315254 0.83377796
-0.20007741 0.23320229 0.83395588
-0.24572568 0.15375414 0.83457965
-0.18875355 0.15367366 0.83414274
-0.24557132 0.15820456 0.83405536
-0.24355638 0.16747637 0.8349418
-0.16829343 0.16731961 0.83416027
-0.17063859 0.1719391 0.83450931
-0.24330379 0.17412335 0.83407587
-0.24328893 0.17638615 0.83402497
-0.17284895 0.17642288 0.83419865
-0.24348798 0.18108101 0.83470732
-0.17518841 0.19013737 0.83451092
-0.17291509 0.1924137 0.83451778
-0.17513263 0.19462489 0.83424526
-0.17508756 0.19684821 0.83403051
-0.24112605 0.2014861 0.83440745
-0.23876482 0.20368655 0.83410436
-0.23436597 0.21064085 0.83463287
-0.22977816 0.21288103 0.83449608
-0.18653972 0.21285926 0.83441073
-0.18198952 0.21513224 0.83440495
-0.22742276 0.21735331 0.83420008
-0.22061165 0.21736373 0.83424008
-0.18877187 0.21735947 0.83422369
-0.18657379 0.21744791 0.83456314
-0.18883263 0.21970412 0.83449221
-0.18661767 0.21977447 0.83475941
-0.21831127 0.22188494 0.83413929
-0.19336103 0.22195472 0.83440167
-0.22078039 0.22208148 0.83487821
-0.19109827 0.22424288 0.83445269
-0.21374585 0.22641338 0.83406925
-0.20467968 0.22644435 0.83418334
-0.2001339 0.22644651 0.83419132
-0.19802332 0.2266334 0.83487976
-0.22071919 0.22884525 0.83464676
-0.21843453 0.22883525 0.83461028
-0.21612924 0.22880322 0.8344934
-0.19559392 0.22872946 0.8342244
-0.19346783 0.22890443 0.83486253
-0.21158566 0.23108424 0.83451629
-0.20260003 0.23121367 0.83498371
-0.20935082 0.23567872 0.83467549
-0.20713134 0.23574211 0.83490002
-0.2047337 0.2356019 0.83440346
-0.16853698 0.15162221 0.83536744
-0.22089685 0.1538903 0.83531862
-0.19137807 0.15395585 0.83567446
-0.16403143 0.15394489 0.83561504
-0.16394955 0.15842128 0.83519793
-0.24598235 0.16302398 0.83545142
-0.16632643 0.16307282 0.8357017
-0.24600667 0.16531764 0.83553404
-0.16861305 0.16535926 0.83574444
-0.16866329 0.17224491 0.83599353
-0.24357794 0.18342403 0.83501571
-0.17529814 0.18570414 0.83503366
-0.17301959 0.18797772 0.83502215
-0.24367614 0.18805206 0.83535236
-0.1777381 0.20410156 0.83580387
-0.23911068 0.20625852 0.83531255
-0.17530093 0.20619291 0.83504689
-0.17545372 0.20865084 0.83577478
-0.17534547 0.21079889 0.83525908
-0.18460095 0.21324705 0.83593088
-0.17991455 0.21537103 0.83533114
-0.17767578 0.21541736 0.83551079
-0.1845962 0.21779865 0.83590931
-0.18447107 0.21992806 0.83534276
-0.19144686 0.22237319 0.83597481
-0.22321117 0.22451316 0.83545846
-0.21877871 0.22691724 0.8359254
-0.21633136 0.22674036 0.8352738
-0.19599874 0.2269242 0.83595103
-0.19144188 0.22920342 0.83595306
-0.21640439 0.23364969 0.83555579
-0.19810484 0.23355675 0.83522344
-0.21423414 0.23604554 0.83597463
-0.20283446 0.23603854 0.83594984
-0.17096524 0.15175639 0.83610678
-0.16648054 0.15182342 0.83647603
-0.21886347 0.15406173 0.83624923
-0.24614771 0.15629706 0.83601302
-0.16424164 0.15642285 0.8366859
-0.24618666 0.16088019 0.83614534
-0.16647552 0.16093896 0.83645082
-0.17101279 0.17003642 0.83633935
-0.24399042 0.17233478 0.83642972
-0.17102927 0.17689265 0.83641994
-0.24635971 0.17923966 0.83673304
-0.1733948 0.18154214 0.83683294
-0.17558105 0.183724 0.83638132
-0.17337936 0.18608771 0.83675843
-0.24401481 0.19059362 0.83651334
-0.17328565 0.19054642 0.83630621
-0.17104436 0.19286929 0.83649373
-0.24412182 0.1952396 0.83688021
-0.17565301 0.19976471 0.83672404
-0.17551145 0.20188268 0.83604974
-0.17554504 0.20420067 0.83620971
-0.18234554 0.21327418 0.83603722
-0.18010344 0.21331777 0.83620811
-0.17786773 0.21337014 0.83641344
-0.23253244 0.2156004 0.83622074
-0.23039104 0.22029117 0.83672196
-0.2236052 0.22262816 0.83693331
-0.18925928 0.22476017 0.83637762
-0.22122326 0.22708759 0.83655292
-0.19395736 0.22720216 0.83697498
-0.22358932 0.22945589 0.83687383
-0.18936419 0.22944696 0.83684129
-0.21424748 0.23150249 0.83602667
-0.20062388 0.23155978 0.83623362
-0.19851354 0.23175721 0.83694655
-0.21894382 0.23392943 0.8365562
-0.19384174 0.23390701 0.83647603
-0.19621442 0.23401743 0.83687091
-0.21660863 0.23614994 0.83634436
-0.21201222 0.23610879 0.83619869
-0.20069095 0.23619762 0.83651322
-0.23743065 0.15199435 0.83741778
-0.17360717 0.15207423 0.8378579
-0.16662672 0.16793144 0.83721048
-0.16662335 0.17249216 0.83719361
-0.17128631 0.17487513 0.837677
-0.17349283 0.17936242 0.83730608
-0.16901533 0.18173859 0.83773845
-0.24433456 0.18627697 0.83760947
-0.17126773 0.1862718 0.83758616
-0.16889465 0.18617263 0.83714026
-0.17346391 0.19530639 0.83716649
-0.24424517 0.1976206 0.83730304
-0.17347139 0.19759689 0.83720261
-0.23757952 0.21147622 0.8379429
-0.23288609 0.21364543 0.83749253
-0.17582959 0.21594703 0.83756518
-0.23060846 0.21821612 0.83751154
-0.18264952 0.21819513 0.83743095
-0.18260348 0.22042225 0.83721989
-0.18046534 0.22059827 0.83788842
-0.22606452 0.22280356 0.83759272
-0.18957852 0.22285563 0.83778846
-0.1871742 0.22499429 0.8372488
-0.226013 0.22503541 0.83740187
-0.19187671 0.22744018 0.83785182
-0.18731554 0.22973204 0.83788103
-0.18501261 0.22970846 0.83779502
-0.2215555 0.23427983 0.83780926
-0.19174354 0.23412912 0.83727032
-0.18959722 0.23429711 0.83787107
-0.21916252 0.23644571 0.83739185
-0.19858363 0.23640341 0.83724207
-0.24460758 0.14991328 0.83854544
-0.21725832 0.1545414 0.83885288
-0.1942973 0.15446569 0.83844191
-0.16235189 0.15908659 0.83870542
-0.2492426 0.16138312 0.83875924
-0.24700411 0.17056145 0.83892173
-0.16917379 0.17048056 0.83852386
-0.1646207 0.17278542 0.83861691
-0.16909517 0.17725518 0.83813417
-0.17138535 0.18183032 0.83816129
-0.17376672 0.18421751 0.83862793
-0.17152354 0.18883654 0.83883715
-0.17137325 0.19095561 0.83810216
-0.24678563 0.19325802 0.83817965
-0.16917765 0.19334179 0.838543
-0.17151874 0.19569068 0.83881372
-0.1737752 0.20251511 0.83866882
-0.23760711 0.20921639 0.83804017
-0.17607044 0.21395662 0.83871245
-0.23780796 0.21625213 0.83874857
-0.23544663 0.21618325 0.83848137
-0.18056008 0.21842892 0.8383283
-0.17837745 0.21855454 0.83881038
-0.23771746 0.22074069 0.83842939
-0.23543738 0.2207457 0.83844841
-0.23310053 0.22069708 0.83826369
-0.17828704 0.22072907 0.83838522
-0.17602681 0.22076049 0.83850461
-0.18738306 0.22296059 0.83818305
-0.23319614 0.22535941 0.83860749
-0.23097631 0.2254239 0.83884752
-0.18513514 0.22529016 0.83834982
-0.22411393 0.22770771 0.83883739
-0.22628069 0.22987258 0.83839363
-0.21707374 0.23208773 0.83814019
-0.19656362 0.23214866 0.83836025
-0.19435348 0.23223841 0.83868432
-0.22400227 0.23445047 0.8384195
-0.24261399 0.15009402 0.8395564
-0.23583753 0.15244007 0.83987349
-0.24953319 0.1592823 0.83973718
-0.16484855 0.16157907 0.83977765
-0.16483524 0.16385493 0.83970982
-0.16705672 0.16607681 0.83937103
-0.16482677 0.1684241 0.83966666
-0.2471052 0.17520666 0.83926505
-0.16716957 0.17763668 0.83993804
-0.24724986 0.18446539 0.83975637
-0.16708031 0.18669508 0.83948952
-0.16488455 0.18679994 0.83996105
-0.24717718 0.18898791 0.83950955
-0.16715437 0.19135651 0.83986169
-0.17157473 0.19804177 0.83908749
-0.24264215 0.20504172 0.83965385
-0.24267384 0.20735757 0.83976352
-0.17388549 0.21179377 0.83920115
-0.17628209 0.21879171 0.83972067
-0.24039255 0.22109908 0.83979064
-0.18535911 0.22327474 0.83936405
-0.23579533 0.22565922 0.83972317
-0.22883485 0.22556692 0.83937973
-0.18318468 0.22570261 0.83988464
-0.18989651 0.22780444 0.8391937
-0.18770635 0.22792265 0.83962917
-0.18306281 0.23012818 0.83932585
-0.22204304 0.23250662 0.8396529
-0.21960203 0.23234552 0.83907115
-0.19229777 0.232517 0.83969045
-0.19004616 0.2325626 0.83985507
-0.22891292 0.23479907 0.83966613
-0.22652029 0.23469149 0.83928138
-0.18771802 0.23480333 0.83968139
-0.24744675 0.15254018 0.84042507
-0.17652941 0.15262617 0.84089881
-0.16495974 0.15252548 0.84034407
-0.16274679 0.15489006 0.84074539
-0.1627433 0.15717843 0.84072739
-0.24746703 0.16859005 0.84049398
-0.16728882 0.17088988 0.84053719
-0.16276759 0.1732461 0.84085286
-0.16955537 0.17544675 0.84041512
-0.24745809 0.17774783 0.84046358
-0.17177035 0.17994896 0.8400442
-0.24739227 0.18228129 0.84024006
-0.16733538 0.18239647 0.84077108
-0.17189214 0.18465944 0.84063977
-0.16948619 0.18453479 0.84007227
-0.16949487 0.18912426 0.84011525
-0.24753098 0.19155006 0.84071118
-0.16960819 0.19154227 0.84067696
-0.16736756 0.19389281 0.84093285
-0.16965149 0.19617544 0.8408916
-0.16960283 0.19841065 0.84065038
-0.17416379 0.20067677 0.84054422
-0.17422388 0.20532998 0.84083426
-0.17413983 0.20752178 0.84042859
-0.2406666 0.20989241 0.84074801
-0.1740894 0.2097519 0.84018523
-0.24066545 0.21218315 0.84074402
-0.23611462 0.21450454 0.84086025
-0.17416854 0.21672103 0.84056717
-0.23363227 0.21891032 0.84017587
-0.17413434 0.22126007 0.84040213
-0.22907399 0.22351225 0.84025693
-0.18337806 0.22364907 0.84077126
-0.18109649 0.22595365 0.84081882
-0.22686136 0.22817127 0.84054506
-0.18550132 0.2280255 0.84000802
-0.23129398 0.23031335 0.84000117
-0.22906244 0.23037185 0.84021455
-0.18098305 0.23039311 0.8402921
-0.2246709 0.23285808 0.84092212
-0.1879691 0.23282549 0.84080446
-0.23132123 0.23492044 0.84010017
-0.18552393 0.23492332 0.84011042
-0.18340509 0.23514275 0.84089518
-0.250195 0.16429485 0.8419643
-0.16524456 0.17114562 0.84179503
-0.24786294 0.1734492 0.8418386
-0.16747826 0.17567094 0.84148902
-0.16524111 0.17802569 0.84177744
-0.16973788 0.1802222 0.84131974
-0.16528225 0.19184075 0.84198701
-0.2499795 0.19396342 0.84123909
-0.24787465 0.19640565 0.84187841
-0.16752885 0.19866857 0.84174323
-0.24544141 0.20088202 0.8414039
-0.24554509 0.20326138 0.84175932
-0.17213272 0.20327514 0.84181637
-0.24074988 0.21684267 0.84103894
-0.23867643 0.21933652 0.84181166
-0.23630121 0.21926177 0.84152472
-0.23868966 0.22393823 0.84185833
-0.23616686 0.22372222 0.84104627
-0.2339447 0.22378956 0.84129941
-0.2315947 0.22373474 0.8410933
-0.18123904 0.22383778 0.84148067
-0.23864105 0.22618693 0.8416869
-0.17898904 0.22618678 0.84168631
-0.17667355 0.22615966 0.8415854
-0.17439288 0.22617698 0.84164983
-0.18346171 0.2283368 0.84115481
-0.23396084 0.23068522 0.84135747
-0.18575443 0.23292235 0.84115422
-0.2271717 0.23307207 0.84169495
-0.18360244 0.23310117 0.84180003
-0.18124238 0.23531079 0.84149611
-0.16302229 0.16203912 0.84216869
-0.16307347 0.16438632 0.84243304
-0.25049964 0.16679275 0.84298944
-0.16541506 0.16672827 0.84266359
-0.16305733 0.16896227 0.84234965
-0.1631697 0.17137641 0.84293014
-0.16081963 0.17361756 0.84265572
-0.16539216 0.17589177 0.84254688
-0.16529399 0.18267325 0.84204686
-0.25045037 0.18973398 0.84282368
-0.16770498 0.18968996 0.84262818
-0.16542542 0.19430403 0.84271634
-0.16766782 0.19653702 0.8424415
-0.17235355 0.20123833 0.84289634
-0.23878275 0.21484292 0.84218669
-0.17450361 0.21484229 0.84218425
-0.17465037 0.21961817 0.84289259
-0.17233154 0.22188841 0.8427887
-0.17677741 0.22399724 0.84208012
-0.17912106 0.22405761 0.84230715
-0.17223941 0.22636195 0.84233814
-0.23196809 0.22868821 0.84244937
-0.22972603 0.2287423 0.84264863
-0.18142428 0.22865872 0.84234071
-0.23652054 0.23094524 0.84230584
-0.17908087 0.23089379 0.8421182
-0.17686863 0.23100251 0.84251469
-0.17459278 0.2310299 0.84261459
-0.17235227 0.23110543 0.84289008
-0.22980212 0.23341344 0.84292775
-0.18146387 0.23330177 0.84252447
-0.23418087 0.23549329 0.84214872
-0.23460385 0.15312912 0.84366983
-0.25067535 0.15541242 0.84358078
-0.16095378 0.1553715 0.84335864
-0.25055796 0.15763803 0.84318572
-0.16091041 0.1599261 0.84313136
-0.16100834 0.169222 0.8436445
-0.1587207 0.17383443 0.84370834
-0.16331378 0.17842689 0.84367442
-0.25074372 0.18075584 0.84381086
-0.16334502 0.18306136 0.84383589
-0.16100943 0.18302108 0.84365022
-0.25053233 0.18519975 0.84309947
-0.16788438 0.18529423 0.84352958
-0.165621 0.18533446 0.84371269
-0.2483692 0.1875999 0.84355807
-0.16320188 0.18749723 0.84309644
-0.16101797 0.18763034 0.84369498
-0.16550031 0.1897957 0.84309787
-0.16320963 0.19210264 0.84313643
-0.16330515 0.19451466 0.8436299
-0.16559632 0.19680424 0.84358692
-0.16549614 0.19898327 0.84307659
-0.24824831 0.19900002 0.84314752
-0.17012657 0.20362046 0.8432464
-0.17241178 0.20820145 0.84318113
-0.17241246 0.21279904 0.84318441
-0.17243218 0.2174207 0.84328091
-0.2413725 0.21970192 0.84321404
-0.24375613 0.22207798 0.84350872
-0.24149166 0.2244096 0.84363031
-0.17474248 0.22433159 0.84333706
-0.24145517 0.22667493 0.84350282
-0.23442483 0.22884476 0.84302604
-0.23695031 0.2290647 0.84383631
-0.1794214 0.22903299 0.84371948
-0.24388453 0.23139688 0.84395307
-0.24148685 0.23130378 0.84361351
-0.23914964 0.23126738 0.84348071
-0.23213223 0.23344605 0.84304547
-0.17939496 0.23359825 0.84359515
-0.24171221 0.15096009 0.84440076
-0.24870184 0.15101141 0.84468788
-0.17968403 0.15336229 0.84495449
-0.16110636 0.15781982 0.84415811
-0.16118148 0.16479975 0.84455174
-0.15894201 0.16486473 0.84488475
-0.16341993 0.16703679 0.84422284
-0.15881774 0.16933827 0.84422415
-0.25081593 0.17160487 0.84405386
-0.25087947 0.17625102 0.84426773
-0.16339955 0.17621967 0.84411752
-0.1611104 0.17853366 0.84417927
-0.1679946 0.18081421 0.84408337
-0.15888089 0.18782268 0.84455985
-0.16355425 0.19020516 0.84491676
-0.25082314 0.19231719 0.84407812
-0.16122434 0.19247626 0.84477627
-0.1634078 0.19923903 0.8441602
-0.17036657 0.2016059 0.84443593
-0.16814426 0.20400414 0.84483528
-0.17265519 0.20619377 0.84437156
-0.24642406 0.20859443 0.84477258
-0.17040433 0.2085575 0.84462309
-0.24405424 0.21083917 0.84454036
-0.24411148 0.21319124 0.84473842
-0.17047806 0.21325436 0.84498852
-0.24169084 0.21538869 0.84432614
-0.24413033 0.2178133 0.84480363
-0.17263368 0.22457877 0.8442663
-0.17030697 0.22684629 0.84414053
-0.17722012 0.22916044 0.84418899
-0.1749282 0.22917251 0.84423345
-0.17273913 0.22932142 0.84478199
-0.17038348 0.23155226 0.84451973
-0.23711194 0.23382442 0.84441191
-0.23489857 0.23391241 0.84472966
-0.17729931 0.23386715 0.84456623
-0.16141123 0.16734004 0.84575552
-0.15913522 0.16737096 0.8459118
-0.25369647 0.17199795 0.84598726
-0.16127887 0.17180984 0.84506202
-0.25138655 0.17430127 0.84597415
-0.16134365 0.1764877 0.84540147
-0.15903002 0.17878178 0.84535253
-0.15681928 0.17888851 0.8458572
-0.16587804 0.1810153 0.84502208
-0.25134012 0.18349132 0.84581786
-0.15906167 0.18342687 0.84552079
-0.25351155 0.18569866 0.84537065
-0.16373383 0.18580273 0.84584445
-0.16127834 0.18563025 0.84505922
-0.15675697 0.18803646 0.84552109
-0.25354323 0.1903311 0.84547621
-0.16135579 0.19032861 0.84546512
-0.25353149 0.19493134 0.84543705
-0.16362442 0.19719906 0.84527928
-0.16134414 0.1995326 0.84540403
-0.16817769 0.20174137 0.84500331
-0.24653167 0.20638177 0.84514141
-0.17291269 0.21111138 0.84563076
-0.24442603 0.22038271 0.84582686
-0.17295225 0.22038203 0.8458243
-0.24430761 0.22718935 0.84541708
-0.2397203 0.22951454 0.84549344
-0.23958722 0.23399393 0.84502405
-0.24190632 0.23400912 0.84507889
-0.1751986 0.23413634 0.84553838
-0.17293589 0.23419335 0.84574425
-0.16377829 0.15356551 0.84607416
-0.15919121 0.15589668 0.84620935
-0.1593146 0.16063437 0.8468653
-0.25386763 0.16288365 0.84655797
-0.16148584 0.16280447 0.84614646
-0.2537767 0.16743882 0.84625477
-0.25158861 0.16982569 0.84665412
-0.15922345 0.17207795 0.84638077
-0.15694696 0.17441906 0.84654582
-0.15927276 0.17674686 0.84664285
-0.16380376 0.18126884 0.84620571
-0.16153505 0.1813114 0.84640437
-0.15698768 0.18369691 0.84676552
-0.15919074 0.18588234 0.8462069
-0.2515606 0.18826745 0.84655982
-0.15918778 0.19279863 0.84619117
-0.25144735 0.19740888 0.84617871
-0.16620703 0.20214598 0.84669805
-0.16622682 0.20447828 0.84679884
-0.17074621 0.206669 0.84631765
-0.16856061 0.20912646 0.84692723
-0.17299958 0.21582991 0.84605575
-0.17073336 0.21818724 0.84625399
-0.24456285 0.22511983 0.84630036
-0.17080818 0.22520614 0.84662479
-0.24470311 0.22986534 0.84678572
-0.24225152 0.22972937 0.84628481
-0.17083767 0.22986135 0.846771
-0.17079996 0.23442592 0.84658408
-0.15951417 0.1631469 0.84792614
-0.15719426 0.16544916 0.84787977
-0.15712263 0.16999403 0.84749341
-0.25404602 0.17685333 0.84715289
-0.25179535 0.1792042 0.84734988
-0.25413164 0.1815329 0.8474384
-0.25657773 0.18625167 0.84788817
-0.15719746 0.18625361 0.84789699
-0.2565943 0.19088641 0.84794295
-0.15935558 0.19069284 0.84708309
-0.2541444 0.19309251 0.84748095
-0.15715931 0.19314042 0.84769124
-0.1617181 0.19537552 0.84736347
-0.16170417 0.19766827 0.84729052
-0.25189865 0.2000739 0.8476975
-0.17093654 0.21151838 0.84726101
-0.16876721 0.21400565 0.84796536
-0.24489081 0.21618183 0.84743524
-0.17099181 0.21620727 0.84753495
-0.24717195 0.22308573 0.84733641
-0.17092852 0.22305542 0.84722131
-0.2472139 0.23236397 0.84748024
-0.16865289 0.23233947 0.84739089
-0.16887793 0.1516968 0.84852165
-0.16652395 0.15165941 0.8483125
-0.15954456 0.15855448 0.84808767
-0.25432858 0.16549116 0.84809506
-0.25456092 0.17027013 0.84886992
-0.25668594 0.17245711 0.84824574
-0.25439501 0.1747839 0.84831661
-0.15500262 0.17482872 0.84853417
-0.15729278 0.17711602 0.8484112
-0.15506628 0.17952837 0.84888268
-0.15964931 0.18179126 0.8486445
-0.25451538 0.18412049 0.84871805
-0.15499797 0.18407507 0.84850872
-0.25449452 0.18873195 0.84864849
-0.1550096 0.18871503 0.84857237
-0.15727657 0.19097212 0.8483237
-0.25665775 0.19555748 0.84815264
-0.15965241 0.20030129 0.84866095
-0.24970411 0.20247877 0.84809196
-0.16418029 0.20249283 0.84815085
-0.24994136 0.20498511 0.84889776
-0.16418189 0.20480675 0.84815913
-0.16888434 0.20721507 0.84855378
-0.24748571 0.21180573 0.84841204
-0.24755104 0.21417488 0.84863597
-0.2474536 0.21871527 0.84830195
-0.16888025 0.2187749 0.84853327
-0.24754806 0.22111197 0.84862578
-0.24761388 0.22811225 0.84885138
-0.16436327 0.1517995 0.84909606
-0.16203491 0.15410084 0.84902352
-0.15748613 0.16112539 0.84945399
-0.25708812 0.16809574 0.84957486
-0.15753697 0.16812608 0.84972823
-0.15748824 0.1727051 0.84946543
-0.2571317 0.1750728 0.84971881
-0.25719321 0.17743143 0.84992206
-0.15748017 0.18195778 0.84942186
-0.25714689 0.18203215 0.84976906
-0.25717589 0.18436928 0.8498649
-0.25720084 0.19365445 0.84994733
-0.15524799 0.1936385 0.84987736
-0.15981865 0.19587842 0.84954464
-0.25464076 0.19809884 0.84913611
-0.16207582 0.20275234 0.8492378
-0.16213797 0.20514588 0.84956354
-0.16682138 0.20984264 0.84982765
-0.17141536 0.22137475 0.84963435
-0.24782763 0.22599334 0.84958416
-0.16905448 0.22826201 0.84940869
-0.16904637 0.23056631 0.84936798
-0.16225788 0.15199541 0.85019183
-0.15773132 0.1567381 0.85077655
-0.25495741 0.16126539 0.85019207
-0.15763442 0.16359477 0.85025388
-0.25728148 0.17053969 0.85021377
-0.15528944 0.17051774 0.85010433
-0.15543374 0.1729956 0.85089427
-0.25513488 0.17993043 0.85078382
-0.25969762 0.1821966 0.8505367
-0.15298475 0.18443637 0.85017413
-0.25963584 0.18678901 0.85033435
-0.15545082 0.18693253 0.85098773
-0.25739092 0.18916048 0.85057539
-0.25956166 0.19137006 0.8500914
-0.25494093 0.20064971 0.85013711
-0.16926171 0.21231449 0.85044992
-0.24814181 0.21700478 0.85066122
-0.16933598 0.21704605 0.85082304
-0.16694248 0.2192677 0.85044461
-0.16922253 0.22385363 0.85025311
-0.1670102 0.22399488 0.85078961
-0.16702677 0.22865579 0.85087401
-0.24805322 0.23083493 0.85035753
-0.17178309 0.15222159 0.85145706
-0.16009557 0.15214287 0.8510167
-0.16009967 0.15446655 0.85103846
-0.1556211 0.16623752 0.85191989
-0.15555298 0.17777066 0.851547
-0.25780156 0.18017337 0.85193247
-0.15322112 0.18007928 0.85148764
-0.15556033 0.18242164 0.85158724
-0.26005036 0.18476565 0.85169196
-0.15088059 0.18469743 0.85137755
-0.15314656 0.18927123 0.85107338
-0.15097167 0.18945317 0.85189146
-0.15548983 0.19161992 0.8512013
-0.15779321 0.19623944 0.8511104
-0.16009311 0.1985345 0.85100359
-0.16026311 0.20571181 0.85190725
-0.167053 0.20781429 0.85100764
-0.25084439 0.20804803 0.85196477
-0.16490737 0.20803389 0.8519069
-0.25060251 0.21016748 0.85114324
-0.16483127 0.21025899 0.8515138
-0.16707197 0.21479782 0.85110426
-0.25076553 0.21959059 0.85169697
-0.16476344 0.21945301 0.85116333
-0.16956227 0.22662532 0.85196
-0.25059852 0.2333646 0.85112971
-0.15797476 0.15930267 0.85208964
-0.15577397 0.16175187 0.85275674
-0.25807783 0.16641812 0.85284543
-0.26031727 0.17333548 0.85256606
-0.26014963 0.17786878 0.85201705
-0.26261306 0.18725917 0.85247469
-0.15346372 0.1873385 0.85283589
-0.26037914 0.18964826 0.85276872
-0.14882889 0.18968175 0.85291934
-0.26274961 0.19200636 0.85291791
-0.15342027 0.19425756 0.85259438
-0.26023176 0.19651052 0.8522861
-0.15798825 0.20112772 0.85216242
-0.16035366 0.20350458 0.85238862
-0.25109553 0.21523027 0.85281777
-0.16507167 0.2152146 0.85275567
-0.16278923 0.21527018 0.8529759
-0.16043833 0.21523553 0.85283864
-0.16962755 0.22206619 0.85228807
-0.1673796 0.22216608 0.85267144
-0.25108284 0.22451749 0.85277462
-0.16504966 0.22448255 0.85264194
-0.16735241 0.2267777 0.85253286
-0.25114766 0.22922571 0.8529948
-0.16509996 0.22920072 0.85290182
-0.16737036 0.23145027 0.85262436
