# .PCD v0.7 - Point Cloud Data file format
VERSION 0.7
FIELDS x y z
SIZE 4 4 4
TYPE F F F
COUNT 1 1 1
WIDTH 1419
HEIGHT 1
VIEWPOINT 0 0 0 1 0 0 0
POINTS 1419
DATA ascii
-0.24330182 0.14639641 0.85812545
-0.29036465 0.14887939 0.85895544
-0.24332264 0.14874826 0.85819888
-0.28333873 0.15590252 0.85894996
-0.28561562 0.16288984 0.85875618
-0.27863118 0.16291209 0.85887349
-0.28092268 0.16522403 0.85872167
-0.25044227 0.16519052 0.85854745
-0.29731753 0.16991106 0.85874969
-0.29483613 0.16983007 0.85834038
-0.29259112 0.16988504 0.85861826
-0.28797275 0.16992195 0.85880476
-0.27160132 0.17227264 0.85885322
-0.29956755 0.17453977 0.85848945
-0.29731065 0.17458865 0.85872984
-0.29479697 0.17448628 0.85822636
-0.29256696 0.17455153 0.85854733
-0.28771237 0.174446 0.85802823
-0.28545436 0.17449543 0.85827136
-0.27605897 0.17447181 0.85815519
-0.27367163 0.17444113 0.85800427
-0.2995263 0.1791953 0.85837126
-0.29019243 0.1792109 0.85844594
-0.27619693 0.17923972 0.85858405
-0.25272971 0.17919463 0.85836804
-0.30661625 0.18391722 0.85856897
-0.30425808 0.18390644 0.8585186
-0.30181861 0.18384595 0.85823625
-0.29946944 0.18383996 0.8582083
-0.28318396 0.18389834 0.85848081
-0.27846262 0.18387114 0.85835385
-0.27613327 0.18387806 0.85838616
-0.27368802 0.18380725 0.85805559
-0.27149484 0.18390597 0.85851645
-0.26431847 0.18613642 0.85801065
-0.28095397 0.18865243 0.85881734
-0.2762799 0.18865784 0.85884196
-0.26918614 0.18860839 0.85861689
-0.26692978 0.18866782 0.85888743
-0.2551038 0.18857908 0.85848349
-0.25967726 0.19084077 0.85813093
-0.25751445 0.19097151 0.85871881
-0.26200798 0.19317369 0.85810339
-0.26207212 0.1955606 0.85831344
-0.25755098 0.19568074 0.8588407
-0.26450223 0.19796795 0.85860711
-0.25733024 0.19785208 0.85810459
-0.26923224 0.19800411 0.85876399
-0.26227292 0.20039329 0.85897112
-0.26451075 0.20265532 0.85863477
-0.25736052 0.20255402 0.85820556
-0.26458815 0.207397 0.85888606
-0.26222482 0.20737951 0.85881358
-0.28824091 0.14664873 0.85960448
-0.24144514 0.14668952 0.85984349
-0.28817031 0.15129796 0.85939395
-0.28581244 0.15128987 0.85934794
-0.29052353 0.15364616 0.85942543
-0.24369903 0.15366422 0.8595264
-0.29767767 0.15605497 0.85978991
-0.29536641 0.15841599 0.8598842
-0.29506555 0.16059615 0.85900831
-0.29059646 0.16305771 0.85964119
-0.28350714 0.16302344 0.85946053
-0.28125513 0.16307604 0.85973787
-0.29984701 0.16533345 0.85929036
-0.29745564 0.16530617 0.85914856
-0.29044434 0.16531438 0.85919124
-0.28820559 0.16771649 0.85949916
-0.28601998 0.16780874 0.85997194
-0.27897432 0.1678008 0.85993123
-0.25076923 0.16774949 0.85966831
-0.29039195 0.16996774 0.85903621
-0.30005759 0.17013744 0.85989386
-0.28132054 0.17249021 0.85993791
-0.30236608 0.17480481 0.85979307
-0.2833598 0.17464639 0.85901386
-0.27172625 0.17703623 0.85924828
-0.26944607 0.17707697 0.85944605
-0.30471694 0.17949635 0.85981333
-0.30220273 0.17939514 0.85932851
-0.29762813 0.17946158 0.8596468
-0.29534695 0.17949931 0.85982752
-0.28813148 0.17938463 0.85927814
-0.28583938 0.17941611 0.85942894
-0.28367859 0.1795312 0.85998029
-0.27870542 0.17934792 0.85910231
-0.26936728 0.18170922 0.85919464
-0.29772383 0.18420732 0.85992318
-0.29058179 0.18413761 0.8595978
-0.2881161 0.18405931 0.85923225
-0.28576812 0.18405554 0.85921466
-0.28121117 0.18413883 0.85960352
-0.2530483 0.18410598 0.8594501
-0.27897793 0.18655547 0.85994232
-0.26719785 0.18651377 0.85975003
-0.25542119 0.18647072 0.85955161
-0.30224153 0.18878895 0.8594389
-0.29998338 0.18884218 0.85968119
-0.29754522 0.18878204 0.85940737
-0.29300016 0.18887237 0.85981864
-0.27408263 0.18875687 0.85929281
-0.27180353 0.18880075 0.8594926
-0.2624954 0.19118965 0.85969967
-0.27894393 0.19356409 0.85983753
-0.27422175 0.19353965 0.85972899
-0.271918 0.19356793 0.85985464
-0.26935205 0.19340843 0.85914612
-0.27408502 0.19812778 0.85930032
-0.27180082 0.19817014 0.85948408
-0.26711139 0.19816732 0.85947186
-0.26003674 0.2004744 0.85931879
-0.26702797 0.20278953 0.8592034
-0.2553823 0.20284083 0.85942078
-0.25320396 0.20297255 0.8599788
-0.26243621 0.2052038 0.85950589
-0.26019475 0.20528381 0.85984099
-0.26720369 0.20761018 0.85976887
-0.26004285 0.20750637 0.859339
-0.23915328 0.14437705 0.86003023
-0.24161139 0.14913593 0.86043555
-0.24397527 0.1514928 0.86050069
-0.29319182 0.15381701 0.86038107
-0.24385118 0.15844893 0.86006302
-0.29787117 0.16084675 0.86034876
-0.24620673 0.16080062 0.860102
-0.29339382 0.16331048 0.86097378
-0.24627241 0.16318865 0.86033148
-0.29546514 0.16550301 0.86017162
-0.29310489 0.16549422 0.8601259
-0.24878462 0.16564502 0.86090964
-0.2978054 0.1678452 0.8601588
-0.29570919 0.16798635 0.8608821
-0.28374878 0.1678519 0.86019307
-0.28166595 0.16800812 0.86099374
-0.30032054 0.17263252 0.86064738
-0.29789731 0.17258777 0.86042428
-0.29542831 0.17251556 0.86006433
-0.29326344 0.17262124 0.86059117
-0.29089352 0.17260695 0.86051995
-0.28635648 0.17269997 0.86098367
-0.27931708 0.17270079 0.86098778
-0.27679753 0.17259315 0.8604511
-0.27444118 0.17258629 0.86041695
-0.25094777 0.1725589 0.86028039
-0.30486217 0.17489225 0.86022317
-0.3001771 0.17723979 0.86023629
-0.29079443 0.17723784 0.86022687
-0.27928892 0.17737673 0.86090094
-0.27444953 0.17728239 0.86044312
-0.3073419 0.17966077 0.86060089
-0.29315203 0.17959049 0.8602643
-0.28142723 0.17959043 0.860264
-0.27436337 0.18191612 0.86017293
-0.27202392 0.18191963 0.86018956
-0.30738297 0.18203095 0.86071587
-0.30512917 0.18208607 0.86097652
-0.30035445 0.18203701 0.86074454
-0.25342864 0.18203644 0.86074185
-0.30960131 0.18430103 0.86036068
-0.29330364 0.18437567 0.86070913
-0.28379327 0.18663915 0.86032796
-0.28150529 0.18667702 0.8605026
-0.26987779 0.18674654 0.86082304
-0.29553315 0.18899341 0.86036962
-0.29092202 0.18904495 0.86060429
-0.28392562 0.18907239 0.86072916
-0.26987073 0.19143446 0.8608005
-0.26521349 0.19146015 0.86091602
-0.27694196 0.19380327 0.86090004
-0.2675761 0.19381838 0.86096716
-0.26499546 0.19364755 0.86020827
-0.25556877 0.19361153 0.86004829
-0.26511887 0.19608359 0.86060882
-0.26739261 0.2007212 0.86037672
-0.26493472 0.2006359 0.86001104
-0.2579014 0.20063546 0.86000919
-0.26984644 0.20314819 0.86072302
-0.2650874 0.20544273 0.86050665
-0.25803298 0.2054287 0.86044794
-0.25578481 0.20550688 0.86077535
-0.25347736 0.20553841 0.86090738
-0.27219549 0.20784277 0.86073208
-0.26991606 0.20789421 0.86094511
-0.2580705 0.20780438 0.86057311
-0.25563669 0.20773283 0.86027682
-0.25345448 0.20786633 0.86082965
-0.27222586 0.21255893 0.86082816
-0.26970965 0.21242525 0.86028677
-0.26748368 0.21251981 0.86066973
-0.26512429 0.21250911 0.8606264
-0.29122496 0.14697219 0.86150044
-0.29367369 0.14937158 0.86179513
-0.29132953 0.15172327 0.86180973
-0.24420007 0.15632789 0.86129355
-0.29826611 0.15871175 0.86148953
-0.30046907 0.16098215 0.86107302
-0.29823571 0.16339163 0.86140168
-0.30294019 0.16574427 0.86142552
-0.30047822 0.16802871 0.86109924
-0.29347816 0.16805254 0.86122131
-0.29124349 0.16811769 0.86155522
-0.30307621 0.17051701 0.86181229
-0.24895243 0.17045332 0.86149037
-0.28888166 0.17280662 0.8615154
-0.28410923 0.17276058 0.86128581
-0.30778238 0.1752198 0.86183429
-0.24894348 0.17514358 0.86145937
-0.30541655 0.17755938 0.86178744
-0.30284849 0.17743109 0.86116481
-0.29824704 0.17748664 0.8614344
-0.29576081 0.17740381 0.86103237
-0.29358721 0.17750867 0.86154127
-0.28878561 0.17744431 0.86122894
-0.28661734 0.17755538 0.86176801
-0.28182811 0.17749798 0.86148942
-0.27699208 0.17740867 0.86105591
-0.25360474 0.17746718 0.86133999
-0.25127548 0.17982839 0.86140382
-0.30285645 0.18213068 0.86118746
-0.29136559 0.18228485 0.86191642
-0.28890166 0.18221264 0.86157501
-0.28650817 0.18218404 0.86143976
-0.28418124 0.18219765 0.86150408
-0.27713919 0.18219955 0.86151314
-0.29578778 0.18446174 0.86111093
-0.2513161 0.18455431 0.86154306
-0.30293173 0.18687202 0.86140144
-0.30077511 0.18699104 0.86195004
-0.28898993 0.18696678 0.86183822
-0.27700686 0.18680702 0.86110181
-0.27488708 0.18696171 0.86181492
-0.30532569 0.18924852 0.86153102
-0.28890958 0.18926337 0.86159861
-0.27944991 0.19156717 0.86139721
-0.26776373 0.19160579 0.86157089
-0.25591636 0.19152731 0.86121798
-0.28197762 0.19403884 0.86194646
-0.277253 0.19871958 0.86186701
-0.25607336 0.19869176 0.86174637
-0.27010259 0.20099261 0.86154008
-0.27245271 0.2033423 0.86154544
-0.26778513 0.21041062 0.86163974
-0.26534662 0.21033943 0.86134815
-0.26319396 0.21284522 0.86198759
-0.2723209 0.21732774 0.86112869
-0.27012458 0.21744928 0.86161023
-0.27252883 0.22219184 0.86178613
-0.23997417 0.14722499 0.86298227
-0.29876393 0.15427223 0.86292738
-0.29636452 0.15424766 0.86278993
-0.30096439 0.15654549 0.86249244
-0.24468048 0.16134016 0.86298794
-0.30086029 0.16354196 0.86219418
-0.29624167 0.16358714 0.8624323
-0.24463229 0.16366029 0.862818
-0.3056857 0.17066236 0.86254686
-0.3033556 0.17302553 0.86260676
-0.28449672 0.17769805 0.86246049
-0.25159678 0.17770727 0.86250526
-0.31029981 0.18001585 0.86230177
-0.31043923 0.18244827 0.86268914
-0.29861343 0.18240671 0.86249262
-0.28227624 0.18248424 0.86285925
-0.27965668 0.18230984 0.86203456
-0.24928461 0.18478926 0.86263984
-0.30795011 0.18706781 0.86230397
-0.30561256 0.18707573 0.86234051
-0.29860467 0.18710326 0.86246735
-0.29379067 0.18703189 0.86213839
-0.28676417 0.18704732 0.8622095
-0.27271184 0.18708102 0.86236489
-0.30791885 0.18939908 0.86221641
-0.28674358 0.18938397 0.86214763
-0.25385764 0.18939525 0.86219895
-0.28217423 0.19182295 0.8625474
-0.27735373 0.19174127 0.86218011
-0.27495092 0.19170457 0.86201507
-0.27261451 0.19171393 0.86205715
-0.30113319 0.19427066 0.86297625
-0.29852015 0.19410115 0.86222327
-0.29640037 0.19425221 0.8628943
-0.27514726 0.19654424 0.86263061
-0.27288726 0.19661008 0.86291957
-0.27038038 0.19649765 0.8624261
-0.26805875 0.19651908 0.86252016
-0.25644583 0.19662836 0.8629998
-0.2845163 0.19887011 0.86251986
-0.27978095 0.19884653 0.86241764
-0.27521056 0.20129332 0.86282903
-0.27264705 0.20113724 0.86216003
-0.25641599 0.20130973 0.86289936
-0.29633182 0.20361356 0.86269474
-0.27509573 0.20356028 0.86246902
-0.25158814 0.20356184 0.86247563
-0.2679373 0.20583014 0.86212933
-0.25172332 0.20602345 0.86293906
-0.27760464 0.20838076 0.86296004
-0.27494973 0.20815167 0.86201131
-0.2515882 0.20826384 0.86247587
-0.27283296 0.21068123 0.86274785
-0.27030352 0.2105428 0.86218095
-0.26329365 0.21057531 0.86231411
-0.27520725 0.21305043 0.86281866
-0.27497002 0.21756656 0.86207497
-0.2775569 0.22245626 0.86281168
-0.27495256 0.22225219 0.86202019
-0.28705561 0.14489001 0.86308581
-0.24015832 0.14969213 0.86364454
-0.29434365 0.15206681 0.86376113
-0.2425798 0.15208849 0.86388427
-0.24244098 0.15435492 0.86338991
-0.30383989 0.16152635 0.86398387
-0.30356801 0.16844073 0.86321074
-0.24953327 0.16849723 0.8635003
-0.31070161 0.17083478 0.86341834
-0.30822557 0.17076692 0.86307532
-0.30587652 0.17312153 0.86308533
-0.24954616 0.17321371 0.86354488
-0.2473006 0.17564453 0.86392331
-0.30846995 0.17796572 0.86375958
-0.2495261 0.18026088 0.8634755
-0.29656857 0.18259521 0.86338395
-0.29413623 0.18254624 0.86315238
-0.2519201 0.1826438 0.86361372
-0.29669261 0.18738045 0.86374509
-0.29175925 0.18723638 0.86308098
-0.25194982 0.18972838 0.86371553
-0.29887605 0.19197947 0.86325121
-0.30139109 0.1920827 0.86371535
-0.30380329 0.19447409 0.86387986
-0.29432714 0.19443645 0.86371267
-0.29203096 0.19447516 0.86388469
-0.28479108 0.19435544 0.86335289
-0.25432363 0.19445197 0.86378163
-0.28022447 0.19680722 0.86378479
-0.28948528 0.19905354 0.86331546
-0.28715089 0.19906664 0.86337227
-0.28255421 0.19914427 0.86370897
-0.29417539 0.20374869 0.8632673
-0.27763495 0.20369841 0.86305428
-0.26136425 0.21091515 0.86370575
-0.28478426 0.21317723 0.86333221
-0.28246686 0.21320431 0.86344188
-0.26120806 0.21314202 0.86318958
-0.27065668 0.21552436 0.86330748
-0.26820815 0.21780023 0.86300087
-0.26585871 0.21780266 0.86301047
-0.28019443 0.22268328 0.86369216
-0.27063057 0.22256261 0.86322415
-0.29700384 0.14515279 0.86465114
-0.29239193 0.14520338 0.8649525
-0.23793928 0.14506619 0.86413527
-0.29450881 0.14744055 0.86424583
-0.29705662 0.14989322 0.86480474
-0.30151916 0.15918942 0.86408234
-0.30635756 0.16632479 0.86444271
-0.24742909 0.16631123 0.86437219
-0.24742879 0.16866717 0.86437118
-0.30865806 0.17336242 0.8642863
-0.31095204 0.17568335 0.86411422
-0.24991499 0.17818445 0.86482126
-0.24748686 0.18049021 0.86457402
-0.24749155 0.1852071 0.86459041
-0.31094328 0.18745525 0.86408991
-0.25448865 0.18750997 0.86434215
-0.25229439 0.1876303 0.86489677
-0.24984111 0.18991511 0.86456555
-0.30387247 0.19216301 0.8640765
-0.29694784 0.19225454 0.86448807
-0.29447916 0.1921813 0.86415875
-0.29225487 0.19226767 0.86454707
-0.29003429 0.1923579 0.8649528
-0.28519684 0.19227563 0.8645829
-0.25463757 0.19233456 0.8648479
-0.2897186 0.19450368 0.86401135
-0.2875528 0.19463183 0.86458063
-0.27808923 0.19696254 0.86446649
-0.28527462 0.19704278 0.86481869
-0.29924569 0.19928488 0.86431879
-0.29696032 0.1993323 0.86452442
-0.29472688 0.19941559 0.86488575
-0.27806866 0.20166041 0.86440253
-0.25465316 0.20177667 0.86490089
-0.29208028 0.20392884 0.8640306
-0.28981629 0.20399307 0.86430269
-0.29934606 0.20406531 0.86460876
-0.28762993 0.20411341 0.86481255
-0.28061134 0.20415227 0.86497724
-0.27341306 0.20641577 0.8645823
-0.27097803 0.20635612 0.86433244
-0.28759211 0.20880063 0.86469883
-0.2853328 0.20887217 0.86499512
-0.28277197 0.20872234 0.86437464
-0.28031814 0.20864964 0.86407351
-0.27569413 0.21107128 0.86434513
-0.28742081 0.2133875 0.86418378
-0.28041449 0.21343361 0.86437047
-0.27816308 0.213514 0.86469603
-0.25928935 0.21349955 0.86463749
-0.27341241 0.2158421 0.86458021
-0.26865005 0.21580279 0.86442274
-0.26617974 0.21571037 0.86405253
-0.27795091 0.2180616 0.86403644
-0.26396126 0.2181787 0.86450052
-0.26155579 0.21813788 0.8643387
-0.27578732 0.22057009 0.86463726
-0.27326345 0.22043537 0.86410916
-0.26855135 0.22278976 0.86410517
-0.28295094 0.22300027 0.86492169
-0.26646399 0.22301412 0.86497533
-0.28044218 0.22523654 0.86445582
-0.30217093 0.14537086 0.86595017
-0.29966673 0.14530115 0.8655349
-0.29482171 0.14523889 0.86516404
-0.29008445 0.14522853 0.86510235
-0.30214763 0.1548007 0.86588335
-0.30447364 0.15714328 0.86578602
-0.24311712 0.15714543 0.86579782
-0.2429263 0.15938026 0.86511827
-0.30420965 0.16408089 0.86503536
-0.24307406 0.16419642 0.86564445
-0.30675238 0.16889851 0.86555672
-0.24767154 0.1711911 0.86521918
-0.31148848 0.17362691 0.86560494
-0.24782647 0.17365812 0.86576045
-0.24775675 0.17832777 0.86551684
-0.25010663 0.18303943 0.86548436
-0.25010103 0.18775356 0.86546499
-0.31129268 0.19002391 0.86506087
-0.24780516 0.19016123 0.865686
-0.28788495 0.19249722 0.86557931
-0.290378 0.19730689 0.86597782
-0.28314719 0.19720292 0.86552155
-0.29248434 0.19949403 0.86522591
-0.25490737 0.19961815 0.8657642
-0.29021913 0.20191738 0.86550403
-0.28545448 0.20424354 0.86536396
-0.28321674 0.20433092 0.86573416
-0.25022903 0.20437194 0.86590797
-0.29506052 0.20672196 0.86586475
-0.27841324 0.20662858 0.86547363
-0.27605149 0.20662664 0.86546552
-0.29249173 0.20893319 0.86524779
-0.29020143 0.2089823 0.86545122
-0.24999744 0.20889907 0.86510652
-0.29498124 0.20902599 0.86563212
-0.28326425 0.21144594 0.86587936
-0.28081614 0.21137981 0.86560857
-0.27843919 0.21136658 0.86555439
-0.2594808 0.21129858 0.86527592
-0.25706974 0.21125546 0.86509937
-0.25468692 0.21123499 0.86501551
-0.25255933 0.21142779 0.86580503
-0.25707346 0.21361668 0.86511189
-0.25473905 0.21363661 0.86519259
-0.27610454 0.21610464 0.86563182
-0.26423818 0.21604863 0.86540747
-0.25954652 0.21842971 0.86549509
-0.27844039 0.22080499 0.86555809
-0.27130115 0.22075525 0.86536312
-0.26909745 0.22088259 0.86586231
-0.26431701 0.2231921 0.86566567
-0.26188982 0.22313456 0.86544251
-0.27827117 0.22538668 0.86503208
-0.27594694 0.22541422 0.86513776
-0.28064904 0.22776078 0.86509347
-0.27828765 0.22775808 0.86508322
-0.2759535 0.22777784 0.86515826
-0.24564986 0.14308587 0.86640698
-0.23634511 0.14553498 0.8669278
-0.29770353 0.1478572 0.86668807
-0.30000859 0.15019093 0.86652237
-0.23846681 0.15010925 0.86605108
-0.29768756 0.15257393 0.86664158
-0.30692917 0.16191366 0.86605555
-0.24100846 0.16439697 0.86670178
-0.24571192 0.16674486 0.86662585
-0.24569818 0.16909768 0.86657739
-0.24342993 0.16916293 0.86691177
-0.24577524 0.1715136 0.86684918
-0.31176949 0.17850682 0.86638588
-0.24573717 0.18093714 0.86671489
-0.24798033 0.18321148 0.8662979
-0.31419584 0.18562995 0.86656439
-0.2456626 0.18560585 0.86645192
-0.24803437 0.18797521 0.86648673
-0.30709246 0.1927056 0.86651629
-0.30693895 0.19497007 0.86608315
-0.25266734 0.19499081 0.86617529
-0.30007911 0.19747734 0.86672598
-0.28816342 0.19740684 0.86641657
-0.30232069 0.19975998 0.86637932
-0.29768515 0.20218115 0.86663461
-0.2952511 0.20213203 0.86642408
-0.29290757 0.20214458 0.86647791
-0.28818995 0.20214888 0.86649632
-0.28572428 0.20207551 0.86618185
-0.28096393 0.20204803 0.86606407
-0.29750052 0.20677742 0.86609709
-0.2928153 0.20680317 0.86620492
-0.29061499 0.20691767 0.86668456
-0.28120717 0.20694856 0.8668139
-0.25046346 0.20692594 0.86671919
-0.29753712 0.20916401 0.86620367
-0.28830644 0.21168214 0.86684662
-0.28569189 0.21149583 0.86608368
-0.29049408 0.21391597 0.86632401
-0.25268489 0.21389411 0.86623544
-0.26218933 0.21630447 0.86643225
-0.28344023 0.21866246 0.86641729
-0.28096953 0.21857767 0.86608136
-0.25740242 0.2186124 0.86621898
-0.26698041 0.22108394 0.86665159
-0.28583562 0.22341223 0.86651945
-0.25992575 0.22347417 0.86675972
-0.25747773 0.2234001 0.86647242
-0.28338 0.22569965 0.86623323
-0.27404553 0.22579058 0.86658221
-0.2716513 0.22576392 0.86647993
-0.28352582 0.2281782 0.86667895
-0.27155712 0.22804673 0.86617959
-0.24829385 0.14324872 0.86739314
-0.24356532 0.14324886 0.86739397
-0.30043465 0.14803888 0.86775297
-0.23889768 0.14801548 0.86761588
-0.30278155 0.15039505 0.86770004
-0.23647505 0.15034382 0.86740446
-0.3004097 0.15275688 0.86768085
-0.24125186 0.1527386 0.86757702
-0.24113792 0.15503024 0.86716729
-0.23891528 0.15512186 0.86767983
-0.23659885 0.15515381 0.86785853
-0.30743116 0.15744929 0.86747199
-0.30497319 0.15976496 0.86720645
-0.24115551 0.1597694 0.86723053
-0.24355708 0.1621584 0.86736459
-0.3098264 0.16692416 0.86755782
-0.24362859 0.166936 0.86761928
-0.30982009 0.16928555 0.86754018
-0.31459588 0.17167556 0.86766773
-0.31468037 0.18118469 0.86790073
-0.24596661 0.18347082 0.86752415
-0.25293845 0.19283646 0.86710471
-0.29797032 0.19764568 0.86746478
-0.25555199 0.19775707 0.86795366
-0.30029342 0.20234688 0.86734504
-0.28373352 0.2023396 0.86731386
-0.25299218 0.20233379 0.86728895
-0.30284229 0.20483601 0.86787415
-0.29341757 0.21196052 0.86798662
-0.29074425 0.21173671 0.86707008
-0.2506969 0.21184827 0.86752695
-0.29328129 0.21422695 0.86758339
-0.25062779 0.21415398 0.86728787
-0.2791146 0.21660946 0.86765397
-0.26014003 0.2165646 0.86747426
-0.28611976 0.21890563 0.8673808
-0.25555259 0.21905069 0.86795563
-0.28141454 0.22128841 0.8674531
-0.26483372 0.22126414 0.86735797
-0.26257381 0.22135212 0.86770284
-0.26953813 0.22597244 0.86728024
-0.26733598 0.22610939 0.86780584
-0.27417997 0.22826467 0.86700737
-0.26952946 0.22832918 0.86725241
-0.26727748 0.22842489 0.86761594
-0.25107378 0.14348622 0.86883116
-0.30539021 0.14578083 0.86839229
-0.30293953 0.14810708 0.8681528
-0.30556858 0.15060295 0.86889946
-0.234404 0.15053222 0.86849135
-0.30316076 0.15295158 0.86878675
-0.23919469 0.15293536 0.86869454
-0.3054949 0.15530246 0.86869001
-0.23441614 0.15527499 0.86853635
-0.31258106 0.1576615 0.86864114
-0.31022501 0.15766747 0.86867404
-0.23673524 0.15997727 0.86835885
-0.30791473 0.16006528 0.86883652
-0.23914666 0.16000699 0.86852014
-0.31247634 0.16234265 0.86835015
-0.31002933 0.16230075 0.86812603
-0.30772257 0.16469903 0.86829424
-0.23901074 0.16464825 0.86802649
-0.31259269 0.1695067 0.8686735
-0.24161166 0.16954523 0.86887097
-0.24377181 0.17176689 0.86812931
-0.24620669 0.17418173 0.86837089
-0.31506366 0.17666809 0.86895782
-0.24624491 0.17657618 0.86850572
-0.24385656 0.18129542 0.86843115
-0.24392764 0.18608406 0.86868429
-0.2463787 0.18851559 0.86897761
-0.24629337 0.19081816 0.8686766
-0.31003922 0.19306977 0.86815381
-0.25103641 0.19319166 0.86870188
-0.31010082 0.19547506 0.86832631
-0.25091356 0.1954639 0.86827677
-0.30301449 0.19785136 0.86836755
-0.29580098 0.19777621 0.8680377
-0.29347518 0.19780339 0.86815703
-0.25327349 0.20019205 0.86825329
-0.25093225 0.20021237 0.86834145
-0.25096017 0.20260188 0.86843807
-0.30084369 0.20745482 0.86893439
-0.28874657 0.20727231 0.8681699
-0.28644767 0.20732124 0.86837488
-0.28402171 0.20727824 0.86819476
-0.24869198 0.20978709 0.86878401
-0.28641647 0.21676581 0.86828023
-0.28398603 0.21671724 0.86808568
-0.28162378 0.21672034 0.86809808
-0.25822005 0.21693812 0.86897045
-0.25345257 0.21928075 0.86886716
-0.25108811 0.21928419 0.86888081
-0.28417709 0.22159877 0.86866975
-0.26050723 0.22160615 0.86869866
-0.25820547 0.22166297 0.8689214
-0.25572541 0.22393386 0.86854267
-0.28901517 0.22404599 0.86897755
-0.25348771 0.22404858 0.86898762
-0.28649655 0.22629626 0.86852306
-0.26530665 0.22639626 0.86890686
-0.28655308 0.22870883 0.86869442
-0.2416891 0.14353877 0.86914945
-0.30589503 0.14839284 0.86982781
-0.2371195 0.14838269 0.86976832
-0.30811879 0.15069184 0.8694123
-0.3058444 0.15310951 0.8696838
-0.23705189 0.15308073 0.86952031
-0.23478653 0.1531491 0.86990863
-0.24179842 0.15782511 0.86954254
-0.31289604 0.16019054 0.86951649
-0.31060135 0.16022949 0.86972785
-0.23473932 0.16023056 0.86973375
-0.2416757 0.16248308 0.86910129
-0.31280571 0.16725272 0.86926544
-0.23951255 0.16973607 0.86984897
-0.24419598 0.17680676 0.86963987
-0.24188907 0.17685327 0.86986858
-0.23937476 0.17674753 0.86934853
-0.24640563 0.17906037 0.86907256
-0.31511617 0.18380465 0.86910266
-0.24407421 0.18382655 0.86920625
-0.31515154 0.18856388 0.86920023
-0.24901624 0.19346185 0.8699168
-0.24890722 0.19574736 0.86953592
-0.30580482 0.20049594 0.86957127
-0.24879746 0.20039938 0.86915249
-0.30333477 0.20279957 0.86928546
-0.24900828 0.20531154 0.86988896
-0.30099338 0.2099278 0.86936677
-0.29615793 0.21222878 0.86908513
-0.29627419 0.21468203 0.86942637
-0.24892916 0.21472801 0.86961257
-0.2916562 0.21714266 0.86978972
-0.28913823 0.21703225 0.86934751
-0.25593773 0.21701133 0.86926371
-0.28904593 0.21933195 0.86907005
-0.24881817 0.21937102 0.86922485
-0.26301467 0.22646216 0.86915976
-0.26314217 0.22894226 0.86958104
-0.25845399 0.2289888 0.86975777
-0.25393304 0.14376417 0.87051427
-0.23975992 0.14380266 0.87074733
-0.31311572 0.14607203 0.8701269
-0.31077564 0.14608696 0.87021583
-0.30850524 0.14613512 0.87050271
-0.23500881 0.14617366 0.87073225
-0.31325313 0.15088189 0.87050879
-0.31082946 0.15085723 0.87036651
-0.30847275 0.15323754 0.87041104
-0.31309211 0.15554762 0.87006134
-0.31098479 0.15567996 0.87080151
-0.23264617 0.15567482 0.87077278
-0.23972601 0.1627678 0.87062418
-0.31337091 0.16518117 0.87083608
-0.31080702 0.16508019 0.87030369
-0.23726018 0.16507651 0.87028432
-0.24202943 0.1674659 0.87037331
-0.31568053 0.17464073 0.87065923
-0.24434359 0.17454171 0.87016559
-0.24203379 0.18170415 0.87038898
-0.23975511 0.18177532 0.87072986
-0.24193591 0.18637383 0.87003702
-0.3156845 0.19125608 0.87067014
-0.24456646 0.19131957 0.87095922
-0.30602416 0.19826773 0.87019497
-0.25404146 0.19842517 0.87088597
-0.246896 0.20077972 0.8708021
-0.24928696 0.2031675 0.87086254
-0.24914148 0.2125387 0.87035429
-0.25386295 0.21726355 0.87027395
-0.25156334 0.21732628 0.87052524
-0.24680588 0.21968885 0.87048423
-0.28698564 0.22193959 0.87000573
-0.25631315 0.22207558 0.87053883
-0.25151819 0.22440475 0.87036902
-0.24915142 0.22440991 0.87038904
-0.2895574 0.22683947 0.87060785
-0.26096249 0.22673759 0.87021685
-0.25855896 0.22671001 0.87011099
-0.28948051 0.22915173 0.87037665
-0.26564604 0.2290574 0.87001836
-0.26090458 0.22905882 0.87002373
-0.31372413 0.14397943 0.87181765
-0.31112245 0.14387527 0.87118697
-0.30897632 0.14398178 0.87183195
-0.30644923 0.14391106 0.87140369
-0.30410266 0.14392467 0.87148607
-0.31595606 0.14628896 0.87141913
-0.31134835 0.14873262 0.8718195
-0.30891156 0.14870359 0.87164927
-0.23533741 0.14875485 0.87194973
-0.31357974 0.15341455 0.87141645
-0.31105918 0.15334296 0.87100983
-0.30874014 0.15574504 0.87116557
-0.31602448 0.15819997 0.87160784
-0.239989 0.15819478 0.87157929
-0.23755494 0.15815599 0.87136555
-0.23282087 0.16054246 0.8714267
-0.31593937 0.16290779 0.87137306
-0.23761904 0.16295035 0.87160069
-0.23515686 0.16526552 0.87128079
-0.31614199 0.16776578 0.87193191
-0.24008135 0.16776246 0.87191468
-0.23747948 0.17710133 0.87108874
-0.31586719 0.17949335 0.87117404
-0.24458605 0.17946348 0.87102902
-0.23754825 0.18190289 0.87134099
-0.24473068 0.18907236 0.87154406
-0.24228477 0.19139259 0.87129158
-0.24715155 0.1962353 0.87170345
-0.25170353 0.19845352 0.87101036
-0.2494778 0.19857173 0.87152922
-0.24938931 0.20800051 0.87122005
-0.29942727 0.21286887 0.87170631
-0.29921582 0.215093 0.87109077
-0.2945267 0.21751159 0.87126756
-0.24955913 0.21764785 0.87181336
-0.29206875 0.21982409 0.87102008
-0.28996816 0.22240824 0.87184286
-0.25416914 0.22227579 0.87132365
-0.25190607 0.22237468 0.87171131
-0.24941979 0.22227654 0.87132657
-0.24717847 0.22239688 0.87179834
-0.24709632 0.22469856 0.8715086
-0.25661162 0.22708561 0.87155253
-0.23779002 0.14404717 0.87222785
-0.31394604 0.14883752 0.87243438
-0.23310524 0.15122546 0.87249106
-0.31617251 0.15352011 0.87201607
-0.31627259 0.15594645 0.87229216
-0.23065959 0.15593645 0.87223625
-0.23539296 0.15829939 0.87215555
-0.31651384 0.16082448 0.87295747
-0.23070361 0.16072227 0.87240273
-0.3162517 0.17020157 0.87223452
-0.23773946 0.17016408 0.87204236
-0.23559952 0.1703355 0.87292087
-0.24257253 0.17259732 0.87232637
-0.24249488 0.17491913 0.87204713
-0.24037977 0.17510995 0.87299848
-0.23535238 0.17728767 0.87200522
-0.23309448 0.17737825 0.87245077
-0.24027856 0.17979352 0.87263089
-0.23542151 0.18209502 0.87226135
-0.24264026 0.18453793 0.87256992
-0.2401534 0.18683212 0.87217635
-0.2427329 0.18936719 0.87290311
-0.2402693 0.1916794 0.87259728
-0.31384981 0.19396225 0.87216693
-0.24724913 0.19393572 0.8720476
-0.24509348 0.19649029 0.87283611
-0.24273564 0.19650757 0.87291294
-0.30931908 0.19886106 0.8727991
-0.24748652 0.1988806 0.87288487
-0.3093161 0.20123823 0.87279069
-0.24751672 0.20366414 0.87299138
-0.247401 0.20594744 0.87258321
-0.24740171 0.2107051 0.87258577
-0.2473847 0.21544734 0.87252575
-0.29722622 0.21774942 0.87222016
-0.29490975 0.22017254 0.87240076
-0.24498887 0.22018839 0.87246358
-0.29250717 0.22490972 0.87232757
-0.2449781 0.22493489 0.8724252
-0.25452495 0.22734377 0.87254339
-0.31655392 0.14418593 0.87306803
-0.30257934 0.14433117 0.8739475
-0.23342884 0.14667223 0.87370223
-0.31667227 0.15138206 0.87339449
-0.23328845 0.15372446 0.87317681
-0.23328385 0.15848161 0.87315959
-0.2356621 0.16324052 0.87315273
-0.31677702 0.16572125 0.87368339
-0.23818851 0.17524855 0.87368947
-0.23576333 0.17521612 0.87352782
-0.23349848 0.1753034 0.87396294
-0.23112598 0.1776932 0.87399989
-0.24276516 0.17987351 0.8730191
-0.23800676 0.18701345 0.87302285
-0.24528466 0.19426247 0.87351692
-0.24302332 0.19435823 0.8739475
-0.31433141 0.19664092 0.87350529
-0.24060968 0.19671479 0.87383342
-0.24528678 0.20140742 0.87352449
-0.30735809 0.20389666 0.87398803
-0.30717495 0.2061561 0.87346733
-0.3048676 0.20858738 0.87367815
-0.24777491 0.21340506 0.87390202
-0.24757507 0.21799333 0.8731972
-0.29759353 0.22039898 0.87329799
-0.29305807 0.22295098 0.87397039
-0.24525198 0.22280562 0.87340057
-0.29297405 0.22765031 0.87371987
-0.31702024 0.14201498 0.87435418
-0.31472626 0.14205532 0.87460256
-0.31702983 0.14916956 0.87438065
-0.23114181 0.15864499 0.87405974
-0.22891124 0.16113453 0.87464046
-0.23371011 0.16354008 0.87475502
-0.23352808 0.16579528 0.87407368
-0.23829563 0.16817956 0.87408245
-0.23600478 0.16824497 0.87442243
-0.24069977 0.17296024 0.87416065
-0.23847128 0.17307225 0.87472677
-0.23828556 0.18008499 0.87404549
-0.23591214 0.18009192 0.87407917
-0.23357844 0.18251273 0.87426221
-0.24075301 0.18491524 0.874354
-0.23849458 0.18501215 0.87481219
-0.24092504 0.18981747 0.87497878
-0.23837043 0.19206591 0.87435681
-0.31244996 0.1993407 0.87490422
-0.31248245 0.20174651 0.87499511
-0.24550746 0.20635508 0.87431037
-0.24796245 0.20879874 0.87456346
-0.30509034 0.21112302 0.87431645
-0.24566354 0.21602525 0.87486619
-0.24560313 0.2183563 0.87465107
-0.25257051 0.22772606 0.87401056
-0.25035778 0.22788049 0.87460333
-0.31251848 0.14213547 0.87509602
-0.23628829 0.14458308 0.87547284
-0.23378564 0.14928165 0.87503773
-0.23159066 0.15179156 0.8757571
-0.23153551 0.15414201 0.87554854
-0.2291017 0.15649638 0.87536818
-0.23149617 0.16604681 0.87539977
-0.23383851 0.17078719 0.87523562
-0.23640105 0.17330253 0.87589061
-0.2316528 0.17571041 0.87599206
-0.2337952 0.18029679 0.87507349
-0.23158626 0.18043421 0.87574047
-0.31990391 0.18281785 0.87572378
-0.23155439 0.18279618 0.87561995
-0.23637253 0.18521789 0.87578499
-0.24098626 0.19463703 0.87520111
-0.23867723 0.19708596 0.8754822
-0.24571945 0.1993774 0.87506533
-0.24356145 0.19956364 0.87588269
-0.24338557 0.20180531 0.87525016
-0.24586505 0.20426895 0.87558383
-0.24356981 0.20673327 0.87591273
-0.24583788 0.20901926 0.87548709
-0.24579254 0.2113667 0.87532562
-0.30308899 0.21377563 0.87541956
-0.30306485 0.21614467 0.87534982
-0.30063486 0.2184988 0.87522191
-0.24357839 0.21867897 0.8759436
-0.30059981 0.22085877 0.87511986
-0.24343699 0.22093834 0.87543511
-0.2959981 0.22575867 0.87562031
-0.24345976 0.22573204 0.87551701
-0.24811031 0.22800599 0.875085
-0.30120859 0.14481749 0.87689221
-0.23429893 0.1448285 0.87695891
-0.22933733 0.15904589 0.87626851
-0.23168342 0.163793 0.87610787
-0.22945873 0.16629958 0.87673235
-0.22699125 0.16624272 0.87643254
-0.23411013 0.16859704 0.87625229
-0.23174904 0.1710058 0.87635601
-0.32004783 0.17334747 0.87611777
-0.23418038 0.17342611 0.87651521
-0.32005841 0.17812967 0.87614673
-0.2295239 0.18308038 0.87698132
-0.23653142 0.18773122 0.87637365
-0.23891667 0.19011721 0.87636042
-0.23908783 0.19503447 0.87698829
-0.24136221 0.19971943 0.87656647
-0.24141094 0.20214961 0.87674344
-0.31063208 0.20687281 0.87650394
-0.24378054 0.2093018 0.87667054
-0.24380696 0.2117144 0.87676555
-0.2461468 0.21406077 0.87658721
-0.2437402 0.21643497 0.87652552
-0.29637462 0.22365601 0.87673414
-0.24374501 0.2236072 0.87654281
-0.29883555 0.22609963 0.87694269
-0.24146746 0.22610117 0.87694871
-0.24600674 0.22826745 0.87608844
-0.2319596 0.1472514 0.8771522
-0.22732086 0.15691417 0.87770522
-0.22731519 0.16169511 0.87768328
-0.23202778 0.16881981 0.87741005
-0.22975793 0.16890937 0.87787557
-0.22737212 0.16891468 0.8779031
-0.22961822 0.17119816 0.87734175
-0.23208728 0.17364769 0.87763506
-0.22973928 0.17607392 0.87780428
-0.22968996 0.17842835 0.87761581
-0.22972338 0.18084691 0.87774354
-0.2248448 0.18077181 0.87737906
-0.22727549 0.18319494 0.87753004
-0.318176 0.19515757 0.87754178
-0.31104878 0.20475791 0.87767977
-0.2440194 0.20472288 0.87752956
-0.24407221 0.21433726 0.87771946
-0.24174777 0.21679084 0.8779667
-0.30397025 0.22157678 0.87796485
-0.2415534 0.2213991 0.8772608
-0.29888904 0.22374928 0.87709975
-0.24171361 0.22393879 0.87784266
-0.30153406 0.22633089 0.87783968
-0.31123525 0.14264059 0.8782059
-0.3210333 0.1475306 0.87881541
-0.22765379 0.15953997 0.87899065
-0.32082775 0.164194 0.8782528
-0.2298307 0.16417545 0.87815356
-0.22522289 0.16670209 0.87885439
-0.32093799 0.16904002 0.87855458
-0.22740258 0.17133065 0.8780207
-0.32107389 0.17629904 0.87892658
-0.32078367 0.18092698 0.8781321
-0.22756569 0.18103378 0.87865049
-0.22285779 0.18110059 0.8789748
-0.2250727 0.18334906 0.87826836
-0.23458876 0.18569557 0.87804371
-0.32077113 0.18810056 0.87809777
-0.23472127 0.18819523 0.87853974
-0.23001796 0.18826579 0.87886912
-0.22755899 0.18821342 0.87862462
-0.23710243 0.19297367 0.87848932
-0.23483117 0.19307511 0.87895107
-0.23938598 0.20006472 0.87808192
-0.31608951 0.20252948 0.87839091
-0.23960505 0.20264351 0.87888551
-0.24200739 0.20504482 0.87890959
-0.241789 0.2072534 0.87811643
-0.30910259 0.20984568 0.87894863
-0.2419602 0.20979543 0.87873816
-0.30881864 0.21204659 0.87814122
-0.24178244 0.21203485 0.87809265
-0.241947 0.21457434 0.87869024
-0.30669251 0.21702325 0.87890792
-0.24190509 0.21932667 0.87853807
-0.30192089 0.22422534 0.87896591
-0.30429864 0.22660773 0.8789134
-0.23256084 0.14523591 0.87942582
-0.23245171 0.14995986 0.87901312
-0.32134384 0.15246899 0.87966555
-0.32126489 0.15482877 0.87944943
-0.32111412 0.15954833 0.87903666
-0.2279079 0.16451538 0.8799718
-0.32141727 0.17169082 0.87986654
-0.2254978 0.17170265 0.87992716
-0.23009375 0.17394915 0.87915868
-0.22784023 0.17645627 0.8797105
-0.22067703 0.1764808 0.87983274
-0.22771786 0.17875817 0.87923807
-0.23257582 0.18599984 0.87948245
-0.23028885 0.18608902 0.87990409
-0.22786255 0.1860663 0.87979668
-0.23264621 0.1884542 0.87974864
-0.22547506 0.18847343 0.87983841
-0.23735715 0.1907838 0.8794331
-0.23261166 0.1932216 0.87961799
-0.23016682 0.19318204 0.87943786
-0.31879684 0.19793509 0.87925416
-0.23728539 0.19791552 0.8791672
-0.2349897 0.19800045 0.87954444
-0.31641683 0.20034236 0.87930048
-0.31405166 0.20755379 0.87938917
-0.23983589 0.21243076 0.87973219
-0.30688709 0.21476367 0.87946558
-0.30444065 0.21952277 0.87932354
-0.30688998 0.22195759 0.87947381
-0.23977931 0.22197044 0.87952465
-0.30465549 0.22447488 0.87994409
-0.3070665 0.22688265 0.87997973
-0.32175976 0.14546353 0.88080412
-0.23035842 0.14775799 0.88016993
-0.23041023 0.15259074 0.88036793
-0.23032966 0.15493627 0.88006008
-0.32181719 0.16710173 0.8809613
-0.22554466 0.17653641 0.88011003
-0.22318776 0.17656974 0.8802762
-0.22568853 0.1790496 0.88067144
-0.22082999 0.18140301 0.88044256
-0.22314373 0.18373197 0.88010257
-0.32150984 0.18613467 0.88011992
-0.22573544 0.18629001 0.88085449
-0.23761234 0.19578846 0.8803786
-0.23276937 0.19815126 0.88021439
-0.23037246 0.19815333 0.88022357
-0.23752594 0.20051506 0.88005847
-0.23753187 0.20291902 0.88008046
-0.31428102 0.20530654 0.88003141
-0.24017355 0.2055257 0.88097078
-0.31687212 0.20783147 0.8805657
-0.23992951 0.20771581 0.88007563
-0.24006183 0.21023063 0.88056099
-0.31188464 0.21250468 0.88003832
-0.23998635 0.21496354 0.88028407
-0.31219283 0.21751709 0.88090789
-0.30951378 0.21732202 0.88011789
-0.23995116 0.21733119 0.88015503
-0.23993556 0.22451408 0.88009781
-0.23991998 0.22689836 0.88004065
-0.32189444 0.14312248 0.88117278
-0.30049586 0.14563046 0.88181496
-0.23068149 0.14556265 0.88140434
-0.32213405 0.1504402 0.88182873
-0.228365 0.15523145 0.8817367
-0.32187316 0.15752369 0.88111454
-0.22591394 0.15760173 0.88155103
-0.32194087 0.1623614 0.88129991
-0.22338936 0.1671226 0.88107133
-0.22580417 0.16953413 0.88112265
-0.22824383 0.17436667 0.88126886
-0.21881565 0.17691489 0.88199687
-0.22360153 0.17930104 0.88190818
-0.22115843 0.1792693 0.88175207
-0.21862689 0.18156649 0.88123602
-0.22119027 0.18410283 0.88187903
-0.2235579 0.18887994 0.8817361
-0.23540427 0.19114457 0.88109612
-0.23314476 0.19126123 0.88163388
-0.2306678 0.19120009 0.88135207
-0.22839488 0.19130857 0.88185209
-0.23540771 0.1959509 0.881109
-0.23311222 0.19604026 0.88151085
-0.2354881 0.20322555 0.88140988
-0.23302686 0.20317441 0.88118809
-0.23069249 0.20323396 0.88144636
-0.31736907 0.20575339 0.88194674
-0.23804271 0.20575954 0.88197315
-0.2378649 0.20800817 0.88131434
-0.23560245 0.20813173 0.8818379
-0.31237802 0.21043821 0.88143045
-0.23801674 0.21054481 0.88187695
-0.31488764 0.21291319 0.88173002
-0.23784159 0.21279195 0.88122797
-0.23553604 0.2128792 0.88158929
-0.30994874 0.215225 0.88135475
-0.24022254 0.21997887 0.88115048
-0.31008998 0.22253364 0.88175631
-0.23791391 0.22246794 0.88149595
-0.30771044 0.22495472 0.88182509
-0.31036726 0.14334531 0.88254476
-0.23088551 0.14328669 0.88218385
-0.23099159 0.15056995 0.88258922
-0.22855946 0.15295811 0.88248754
-0.22612028 0.16255599 0.88235617
-0.22384773 0.1722787 0.8828792
-0.21902637 0.17949176 0.88284624
-0.21645451 0.18175939 0.88217223
-0.22387691 0.18674256 0.88299429
-0.32232305 0.19141574 0.88234609
-0.22847545 0.19378069 0.88216317
-0.2309116 0.1962121 0.88228357
-0.23564617 0.20095778 0.88200152
-0.23337057 0.20106857 0.88248783
-0.23346819 0.20837225 0.88285697
-0.23570108 0.21062361 0.88220704
-0.31286368 0.21557812 0.88280082
-0.23823895 0.21555355 0.8827002
-0.31525534 0.21797433 0.88275969
-0.23818721 0.21791232 0.88250852
-0.3078725 0.22026321 0.88228947
-0.31288072 0.2228094 0.88284898
-0.23827972 0.22521651 0.8828513
-0.23361929 0.14348882 0.88342834
-0.22870831 0.14342937 0.88306224
-0.22872362 0.14825347 0.88312137
-0.22635303 0.16513096 0.88326442
-0.22634447 0.17475489 0.88323098
-0.22171862 0.1893618 0.88398552
-0.22634405 0.19160736 0.88322937
-0.32268801 0.19404033 0.88334513
-0.22640271 0.19406518 0.88345826
-0.22871503 0.19879821 0.88308823
-0.23119761 0.20127101 0.88337636
-0.32027376 0.2036677 0.88332754
-0.22890717 0.20378357 0.88383007
-0.23126049 0.20855156 0.88361663
-0.3153463 0.21081635 0.88301432
-0.31789219 0.21331654 0.88340044
-0.3108508 0.22067022 0.88391978
-0.22915532 0.14612149 0.88478816
-0.22919224 0.1509694 0.88493073
-0.22430061 0.15815851 0.88466543
-0.22655708 0.16046019 0.88406062
-0.2242845 0.165381 0.88460189
-0.22429559 0.17021197 0.88464558
-0.22182243 0.17498606 0.88439935
-0.22427195 0.17501634 0.88455242
-0.21697198 0.1773731 0.88428122
-0.21700911 0.17981428 0.88443261
-0.21949682 0.18470062 0.8847425
-0.22421762 0.19184789 0.88433814
-0.22413376 0.19418579 0.88400733
-0.22903174 0.19666299 0.88431102
-0.32058004 0.20145236 0.88417226
-0.23618254 0.20623451 0.88400912
-0.23380186 0.20626009 0.88411868
-0.23146671 0.20632678 0.8844046
-0.31826237 0.21115412 0.8844291
-0.23402958 0.21128561 0.88497984
-0.23387316 0.21355508 0.88438833
-0.31582618 0.2159584 0.88435805
-0.23625275 0.21593736 0.88427192
-0.23633553 0.21842425 0.88458174
-0.31353581 0.22086434 0.88469738
-0.23859233 0.22069263 0.88400954
-0.23642364 0.22332995 0.88491154
-0.3110213 0.22561276 0.8844046
-0.2365915 0.14383179 0.88553983
-0.22683935 0.14377044 0.88516212
-0.22690839 0.14864127 0.88543147
-0.22460662 0.14871529 0.88587236
-0.22690889 0.15346873 0.8854335
-0.22455117 0.15350689 0.88565367
-0.22692174 0.15589109 0.88548356
-0.22441317 0.16306321 0.88510936
-0.22199728 0.16788609 0.88509649
-0.22199705 0.17271119 0.8850956
-0.32588261 0.18002781 0.88548285
-0.32593542 0.18488514 0.88562638
-0.21719986 0.18479821 0.88520998
-0.22199294 0.1871835 0.88507921
-0.22699125 0.19698408 0.88575482
-0.226997 0.19940357 0.88577729
-0.22930981 0.2017286 0.88538468
-0.32088169 0.20887905 0.88500422
-0.31873471 0.21871068 0.88574171
-0.31613547 0.22340883 0.8852241
-0.31392315 0.22596626 0.88579035
-0.21998787 0.17544557 0.88672179
-0.32629746 0.18267374 0.88661009
-0.21987659 0.18985187 0.88627326
-0.2223435 0.19472827 0.88647687
-0.32146528 0.20684217 0.88661379
-0.22948532 0.20671353 0.88606232
-0.2294981 0.20914045 0.88611174
-0.2345276 0.21898757 0.88686311
-0.31655771 0.22129102 0.88640648
-0.23683943 0.22130632 0.88646775
-0.31907347 0.22377707 0.88668317
-0.22512096 0.14421529 0.88790095
-0.22742164 0.14655849 0.8874343
-0.22267756 0.14904036 0.88780874
-0.22756296 0.1514906 0.88798577
-0.2250303 0.15141512 0.88754338
-0.22272016 0.15390986 0.88797861
-0.22492737 0.15618226 0.88713741
-0.22505197 0.16110784 0.88762885
-0.22247997 0.16341539 0.88702101
-0.22250724 0.16585359 0.88712972
-0.2201342 0.16830628 0.88731164
-0.22008008 0.17310104 0.88709348
-0.21534391 0.18285824 0.88750553
-0.22022925 0.18773666 0.88769478
-0.22257058 0.19250828 0.88738227
-0.22489472 0.19726293 0.88700867
-0.22750299 0.20468777 0.8877517
-0.32180485 0.21431863 0.88755035
-0.31940743 0.21675281 0.88761121
-0.23463404 0.21666841 0.88726562
-0.23707631 0.22636527 0.88735443
-0.23982869 0.14432727 0.8885904
-0.22288181 0.15886606 0.88862312
-0.22287565 0.17097256 0.88859856
-0.32704479 0.17582525 0.8886407
-0.2179995 0.17579126 0.88846898
-0.22521026 0.19996093 0.88825321
-0.22775799 0.20249464 0.8887468
-0.32208073 0.21208096 0.88831121
-0.23243752 0.21203385 0.88811392
-0.23263808 0.21463975 0.88888019
-0.31989473 0.22192985 0.88896537
-0.23496285 0.22423786 0.88850898
-0.22545713 0.14685453 0.88922685
-0.22320336 0.15181804 0.88990515
-0.22065206 0.15415604 0.88939899
-0.22066429 0.16386257 0.88944834
-0.22067522 0.16629529 0.88949233
-0.22069557 0.17116031 0.88957441
-0.21813546 0.17347756 0.88902307
-0.21590385 0.1857592 0.88981324
-0.32488522 0.19778582 0.88935995
-0.23520745 0.22204682 0.88943392
-0.22829168 0.14226267 0.89082932
-0.22328669 0.14459476 0.89023733
-0.22080351 0.1494098 0.89000946
-0.22347659 0.16171871 0.89099449
-0.32756174 0.17852931 0.8900454
-0.21846035 0.1882976 0.89034718
-0.22101691 0.19326484 0.89086968
-0.2209709 0.19565247 0.89068419
-0.32512844 0.20035996 0.89002573
-0.22819468 0.20773734 0.89045084
-0.32301629 0.2199823 0.89089155
-0.22593099 0.14230523 0.89109582
-0.22120015 0.14481743 0.89160824
-0.22372368 0.14730915 0.89197963
-0.22110771 0.15204503 0.89123565
-0.22353421 0.15690175 0.89122421
-0.22111405 0.1593377 0.89126122
-0.2188659 0.16919556 0.89200002
-0.21882309 0.17159346 0.89182556
-0.21630448 0.17881392 0.89146435
-0.21628979 0.1812316 0.89140379
-0.21862476 0.19086809 0.89101726
-0.22353457 0.19820075 0.89122564
-0.22364092 0.20072554 0.89164966
-0.22840349 0.21035688 0.89126563
-0.32333747 0.21777017 0.89177734
-0.23329066 0.22010133 0.89137363
-0.23123102 0.1425778 0.89280266
-0.22387013 0.14253961 0.89256352
-0.21905857 0.14987579 0.89278525
-0.21896411 0.15467626 0.89240032
-0.22153565 0.15720743 0.89296055
-0.21901545 0.15957874 0.89260954
-0.21894589 0.16439274 0.89232606
-0.32841608 0.17413004 0.89236677
-0.22634387 0.20340087 0.89272428
-0.32620841 0.20589374 0.89298213
-0.23109806 0.21303071 0.89228928
-0.23353066 0.21789552 0.89229065
-0.2335393 0.22520059 0.89232367
-0.21932711 0.14518636 0.89387971
-0.22158812 0.14750607 0.89317209
-0.22160587 0.16212694 0.89324361
-0.21691938 0.17444845 0.89399856
-0.32637593 0.20356409 0.89344066
-0.22663823 0.20610198 0.89388525
-0.3263441 0.21084967 0.89335358
-0.23148973 0.21582812 0.89380157
-0.23391332 0.22312501 0.89375275
-0.22184905 0.14280476 0.89422381
-0.21953702 0.15264206 0.89473522
-0.21944821 0.16233197 0.89437324
-0.21946998 0.16722439 0.89446199
-0.21704915 0.17699116 0.8945334
-0.32436088 0.22333652 0.89459997
-0.22226672 0.14063151 0.89590734
-0.21979508 0.14793792 0.89578694
-0.21739112 0.15529026 0.89594281
-0.21974023 0.15766566 0.89556336
-0.21730609 0.17231821 0.89559233
-0.32703614 0.20885649 0.895248
-0.23199549 0.22118303 0.89575434
-0.2200195 0.14075619 0.89670163
-0.22006036 0.14322704 0.89686811
-0.21754438 0.15051189 0.89657444
-0.21762961 0.16035037 0.89692569
-0.21755239 0.1651815 0.89660746
-0.2174781 0.17001143 0.89630127
-0.33254313 0.18235666 0.89693749
-0.21506979 0.18470041 0.89644659
-0.21752943 0.18960156 0.89651281
-0.22241698 0.19937661 0.89651304
-0.22240539 0.20180984 0.89646631
-0.32744989 0.2140075 0.8963806
-0.32732111 0.21636575 0.89602804
-0.22505136 0.14084588 0.89727306
-0.23493521 0.14335306 0.89765728
-0.21781981 0.14580843 0.89770955
-0.21778546 0.15312533 0.89756799
-0.33262375 0.18484636 0.89715493
-0.21788462 0.19235888 0.89797664
-0.22010958 0.19460967 0.89706874
-0.22020383 0.19713931 0.89745283
-0.22499906 0.20438977 0.89706451
-0.2252163 0.20703472 0.89793062
-0.22754656 0.20937435 0.89746779
-0.22747318 0.21175241 0.89717841
-0.2300998 0.21436663 0.89788485
-0.23240353 0.21912608 0.89732981
-0.23257263 0.22418103 0.89798272
-0.21797912 0.1630567 0.89836615
-0.21808267 0.16803408 0.89879286
-0.21547085 0.18014859 0.89811826
-0.21545401 0.18747832 0.8980481
-0.21555921 0.19001898 0.89848655
-0.23021519 0.21692286 0.89833516
-0.21821895 0.14117262 0.89935458
-0.21834162 0.14370485 0.89986008
-0.21822584 0.14853179 0.89938295
-0.21825685 0.1583606 0.89951074
-0.21570311 0.18279354 0.89908636
-0.23046885 0.22206472 0.89932501
-0.21608101 0.16592838 0.90066153
-0.33386609 0.17817286 0.90050578
-0.21605285 0.17818044 0.90054411
-0.22847384 0.14145054 0.90112507
-0.21627511 0.17590648 0.90147054
-0.33431458 0.18087013 0.90171546
-0.22861624 0.21773218 0.90168673
-0.23105235 0.22016931 0.90160191
-0.21642219 0.15143673 0.90208358
-0.21650633 0.15641542 0.90243435
-0.21656825 0.16138133 0.90269238
-0.21661761 0.16387928 0.90289819
-0.21660273 0.17125097 0.90283608
-0.3345913 0.17363994 0.90246177
-0.2190938 0.19588774 0.90296012
-0.22139336 0.2031233 0.90230083
-0.22392832 0.2056521 0.90260488
-0.22643413 0.21061508 0.90278608
-0.2262675 0.21291915 0.90212178
-0.22871937 0.21537143 0.90209347
-0.32952264 0.22027987 0.90205467
-0.32962582 0.22280847 0.90233707
-0.21684046 0.14680204 0.90382701
-0.2166851 0.15408264 0.90317947
-0.21675427 0.16890807 0.90346777
-0.21672842 0.17381276 0.90336001
-0.33487427 0.17624883 0.903225
-0.21928048 0.19851807 0.9037295
-0.22162998 0.20087823 0.90326518
-0.22408056 0.20825393 0.90321851
-0.22897294 0.22299527 0.90309358
-0.21953784 0.13955954 0.90479016
-0.3353011 0.16907793 0.90437627
-0.22437297 0.21345617 0.90439713
-0.22209282 0.13961528 0.90515155
-0.21729985 0.14958195 0.90574181
-0.33558694 0.17168935 0.90514725
-0.33803049 0.18401286 0.90508366
-0.22722349 0.21875758 0.90593326
-0.22946507 0.22100757 0.9050346
-0.21738094 0.15951711 0.90607983
-0.33870095 0.17943382 0.90687889
-0.22006015 0.20416827 0.90694278
-0.22246455 0.20904894 0.90666652
-0.22496793 0.21155041 0.90679532
-0.22741912 0.21647438 0.90671325
-0.33657435 0.16724543 0.90781051
-0.33892536 0.18202636 0.90747976
-0.21523619 0.18202047 0.90745038
-0.21781525 0.19448248 0.90789008
-0.22023031 0.20185205 0.90764403
-0.22269309 0.20678973 0.90759796
-0.21556702 0.17734551 0.90884519
-0.21545289 0.17972769 0.90836406
-0.339277 0.18716763 0.90842128
-0.21547055 0.18717118 0.90843844
-0.22532485 0.21683745 0.908234
-0.2253816 0.21936838 0.9084627
-0.22797023 0.22195405 0.90891045
-0.21571177 0.16754848 0.90945548
-0.21580242 0.18497938 0.9098376
-0.33977473 0.18992205 0.90975392
-0.22076136 0.20977896 0.90983272
-0.22306862 0.21457288 0.90912849
-0.21587993 0.17264101 0.91016442
-0.33996838 0.17514275 0.91027242
-0.33989719 0.17758682 0.9100818
-0.22093654 0.2074634 0.91055465
-0.2234107 0.21241997 0.91052258
-0.21608469 0.15542156 0.91102773
-0.21631521 0.15807332 0.91199958
-0.21611305 0.1703438 0.9111473
-0.34059298 0.17297871 0.91194481
-0.21613635 0.17532998 0.91124552
-0.21610105 0.19020237 0.91109669
-0.2162991 0.19286247 0.91193169
-0.21879122 0.19783975 0.9119581
-0.21857606 0.20012861 0.91106129
-0.2210938 0.21506245 0.91120279
-0.22363482 0.22008635 0.91143602
-0.21639381 0.1631045 0.91233099
-0.21647903 0.16565658 0.91269028
-0.34089282 0.170643 0.91274762
-0.34313458 0.1804655 0.9120931
-0.22140679 0.21287958 0.91249269
-0.22393292 0.21789198 0.91265094
-0.22143237 0.22036698 0.91259819
-0.21914299 0.14338116 0.91342431
-0.21921238 0.14591721 0.91371357
-0.3436172 0.18320905 0.91337597
-0.34356087 0.18566832 0.91322625
-0.21910742 0.205594 0.91327608
-0.2217477 0.21818964 0.91389769
-0.21699165 0.16106138 0.91485149
-0.21940282 0.20337839 0.91450739
-0.21936001 0.21081565 0.91432893
-0.34436816 0.17612398 0.91537213
-0.34447229 0.17867313 0.91564888
-0.21466702 0.1836497 0.91557282
-0.21967217 0.2086198 0.9156301
-0.21971387 0.22114106 0.91580385
-0.34224373 0.16882136 0.91636473
-0.21487547 0.16883926 0.91646188
-0.21477473 0.17874794 0.9160322
-0.21493466 0.18137985 0.91671431
-0.21998431 0.21391504 0.91693109
-0.21976689 0.21620056 0.91602486
-0.34248614 0.16644131 0.91701376
-0.21500942 0.17394388 0.91703314
-0.34524575 0.17407128 0.91770482
-0.21750328 0.19643578 0.91700858
-0.22018524 0.2191138 0.9177686
