# .PCD v0.7 - Point Cloud Data file format
VERSION 0.7
FIELDS x y z
SIZE 4 4 4
TYPE F F F
COUNT 1 1 1
WIDTH 1420
HEIGHT 1
VIEWPOINT 0 0 0 1 0 0 0
POINTS 1420
DATA ascii
-0.17950642 0.18794093 0.86632866
-0.17471932 0.18787195 0.86601067
-0.17241539 0.18793373 0.86629546
-0.14168686 0.1878932 0.86610866
-0.18195844 0.1880345 0.86676002
-0.13707048 0.18803777 0.86677504
-0.13939424 0.19270931 0.86653298
-0.13706288 0.19275247 0.86672699
-0.17510058 0.15042979 0.86790043
-0.17033206 0.15039712 0.86771196
-0.16799429 0.15278736 0.86785388
-0.14671752 0.15280183 0.86793607
-0.17259139 0.15503246 0.86717975
-0.14194852 0.15512693 0.86770815
-0.17021924 0.15738854 0.86713725
-0.15136974 0.15745085 0.86748058
-0.14667603 0.15748899 0.86769068
-0.1442626 0.15743634 0.86740059
-0.13482477 0.15982415 0.86752772
-0.16564342 0.16226433 0.86793125
-0.16327211 0.16225889 0.86790216
-0.15615603 0.16223936 0.86779767
-0.14896597 0.16213746 0.86725259
-0.14671597 0.16226353 0.86792696
-0.17027558 0.164534 0.86742425
-0.16788726 0.16451062 0.86730093
-0.16551211 0.16449966 0.86724317
-0.14189953 0.16453105 0.86740869
-0.16083172 0.16691296 0.86749959
-0.15377156 0.1669497 0.86769056
-0.15132011 0.16685459 0.8671962
-0.14900906 0.16691372 0.86750352
-0.14661016 0.16687475 0.86730099
-0.16328427 0.16700286 0.86796677
-0.17982605 0.16935016 0.86787128
-0.17501253 0.16927068 0.86746401
-0.1726037 0.16922729 0.86724162
-0.17019308 0.16918091 0.86700392
-0.1678413 0.16919254 0.86706352
-0.16547608 0.16919076 0.8670544
-0.15371911 0.16925713 0.86739457
-0.15131043 0.1692076 0.86714071
-0.14435922 0.16937166 0.86798149
-0.16085154 0.17166343 0.86760646
-0.15841311 0.17158388 0.86720431
-0.15611951 0.17166112 0.86759472
-0.17257676 0.17392807 0.86710626
-0.15133196 0.17395972 0.86726403
-0.16564012 0.17409006 0.8679139
-0.16326503 0.17408016 0.86786455
-0.15379544 0.17407228 0.86782521
-0.14434497 0.17408645 0.8678959
-0.17504452 0.17639664 0.86762261
-0.17034766 0.17643096 0.86779141
-0.14662747 0.17635208 0.86740345
-0.186933 0.17882235 0.8679173
-0.18212721 0.17874955 0.8675639
-0.17969285 0.17868042 0.86722845
-0.17261378 0.17869358 0.86729228
-0.17021772 0.17866004 0.8671295
-0.16563299 0.17881396 0.86787659
-0.16078003 0.17867886 0.86722082
-0.13961907 0.1788251 0.86793059
-0.17507005 0.18351838 0.86774909
-0.17271806 0.1835326 0.86781627
-0.17025131 0.18342353 0.86730057
-0.16797067 0.18351474 0.86773187
-0.13720129 0.18348733 0.86760223
-0.17505342 0.18586609 0.86766672
-0.17024618 0.18814611 0.86727446
-0.1443103 0.18823569 0.8676874
-0.1348007 0.18816745 0.86737287
-0.13950412 0.19049732 0.86721605
-0.17968021 0.19285041 0.86716741
-0.17739409 0.19293486 0.86754715
-0.14190078 0.19290575 0.86741632
-0.13477921 0.19286534 0.86723459
-0.1658092 0.14821747 0.86879987
-0.16332304 0.14811051 0.86817288
-0.15392599 0.14817688 0.86856186
-0.15157712 0.14819515 0.86866903
-0.14678663 0.14813986 0.86834496
-0.17755501 0.15050496 0.86833411
-0.17286254 0.15054102 0.86854219
-0.13971004 0.15053304 0.86849612
-0.17043281 0.15285271 0.86822516
-0.14446676 0.15292366 0.86862814
-0.17768776 0.1553549 0.86898333
-0.17518847 0.15523919 0.86833608
-0.139695 0.15525109 0.86840266
-0.14215313 0.15771918 0.86895895
-0.17279591 0.15994936 0.86820734
-0.17763364 0.16004355 0.86871862
-0.17523882 0.16001906 0.86858565
-0.17056546 0.16244562 0.8689009
-0.16806431 0.16231748 0.86821556
-0.16092512 0.16227782 0.86800337
-0.14445025 0.16237606 0.86852884
-0.14204781 0.1623361 0.8683151
-0.13970107 0.16235952 0.86844039
-0.17524345 0.16475865 0.86860859
-0.17277189 0.16465966 0.8680867
-0.1397102 0.16473752 0.86849713
-0.13735941 0.16475743 0.8686021
-0.13504775 0.16482578 0.86896247
-0.16816156 0.16714738 0.86871797
-0.16583538 0.16718954 0.86893702
-0.17754929 0.16943501 0.8683061
-0.13501596 0.16952318 0.86875796
-0.17057697 0.17193118 0.86895961
-0.16584201 0.17193358 0.86897177
-0.16344793 0.17190686 0.86883676
-0.18462567 0.17414589 0.86819226
-0.1822467 0.17413403 0.86813313
-0.16802327 0.17410806 0.86800361
-0.14215618 0.17430341 0.86897755
-0.18478729 0.17666698 0.86895227
-0.17991418 0.17653365 0.86829656
-0.1774901 0.17647675 0.86801666
-0.17284246 0.17656308 0.86844128
-0.15157811 0.17661053 0.8686747
-0.14914469 0.17653295 0.86829311
-0.14441827 0.17654179 0.86833656
-0.16802622 0.17884326 0.86801881
-0.16345759 0.17902237 0.86888808
-0.13505279 0.17904438 0.86899495
-0.1822972 0.18128343 0.86837369
-0.17985654 0.18120927 0.86801839
-0.1775865 0.18130732 0.86848807
-0.14442059 0.1812786 0.86835057
-0.14203805 0.18125875 0.86825544
-0.13969295 0.18128681 0.8683899
-0.18471901 0.18370494 0.86863124
-0.1658116 0.18374325 0.86881238
-0.15863475 0.18365978 0.86841762
-0.1563348 0.18373877 0.86879116
-0.15394059 0.18370771 0.8686443
-0.14678699 0.18364485 0.86834705
-0.13264094 0.18372217 0.86871266
-0.13028516 0.18373935 0.8687939
-0.18223652 0.18595561 0.86808467
-0.17042904 0.1859816 0.86820596
-0.13966647 0.18598573 0.86822522
-0.17282291 0.18601097 0.86834306
-0.14211896 0.18609814 0.86875004
-0.18711132 0.18846518 0.86874521
-0.18460913 0.18832836 0.86811453
-0.16813885 0.18843381 0.86860067
-0.16108146 0.18848719 0.86884665
-0.15863805 0.188398 0.86843562
-0.14675237 0.18833438 0.86814231
-0.13266625 0.18849406 0.86887836
-0.1799137 0.19073418 0.8682943
-0.17754109 0.19072798 0.86826605
-0.14204018 0.19072852 0.86826849
-0.13727227 0.19068076 0.86805105
-0.18236859 0.1931943 0.86871374
-0.16576032 0.19315648 0.86854374
-0.16337949 0.19314075 0.86847293
-0.16105354 0.19319035 0.86869603
-0.15399764 0.19325046 0.86896628
-0.15150592 0.1930936 0.86826098
-0.14911297 0.19305967 0.86810839
-0.14685504 0.19320229 0.86874968
-0.15161631 0.19560274 0.86889356
-0.15162191 0.19797854 0.86892569
-0.14923711 0.19795699 0.86883116
-0.17070757 0.14835821 0.86962485
-0.16839273 0.14840724 0.86991221
-0.14938495 0.14836964 0.86969185
-0.1445287 0.14825173 0.86900061
-0.14230773 0.14840584 0.86990398
-0.13748454 0.15068856 0.86939341
-0.13515976 0.15073881 0.86968327
-0.17552032 0.15316181 0.86998087
-0.17305644 0.15308003 0.86951637
-0.14227247 0.15311033 0.86968845
-0.13745211 0.15539156 0.86918837
-0.13518409 0.15550801 0.86983979
-0.17305651 0.15782043 0.86951679
-0.13982594 0.15776595 0.86921662
-0.1825975 0.16024356 0.8698042
-0.18012576 0.16015393 0.86931771
-0.13275494 0.16017999 0.86945921
-0.13748372 0.16253671 0.86938816
-0.18018235 0.16494498 0.86959088
-0.17781635 0.16494901 0.86961216
-0.17314255 0.16738425 0.86994904
-0.17058739 0.16720408 0.86901265
-0.14459777 0.16728166 0.86941582
-0.14218363 0.16959877 0.86914533
-0.13748205 0.16964409 0.86937761
-0.13277693 0.16968814 0.86960328
-0.168266 0.17199011 0.86925751
-0.18019417 0.17206734 0.86964786
-0.17782861 0.17207214 0.86967212
-0.17547812 0.17209186 0.86977172
-0.173123 0.1721075 0.86985081
-0.1469595 0.1720119 0.8693676
-0.18720433 0.17434344 0.8691771
-0.13987206 0.17440888 0.86950332
-0.13750245 0.17440955 0.86950666
-0.13511147 0.17438263 0.86937249
-0.18256134 0.17680515 0.86963195
-0.16117096 0.17674364 0.86932939
-0.15887485 0.17682549 0.86973202
-0.15637937 0.17668457 0.86903888
-0.15400991 0.17668387 0.86903542
-0.1423071 0.17685968 0.86990011
-0.1374926 0.17913698 0.86944431
-0.18494703 0.18156104 0.86970347
-0.17540815 0.18150291 0.869425
-0.17062879 0.18146084 0.86922354
-0.16832615 0.1815328 0.86956823
-0.16593786 0.18151313 0.86947399
-0.15646851 0.18152571 0.86953419
-0.14701407 0.18155831 0.86969042
-0.13754322 0.18157376 0.86976445
-0.13518338 0.18158855 0.86983526
-0.187188 0.18380436 0.86910129
-0.16354609 0.18385875 0.86935848
-0.16118066 0.18386367 0.86938173
-0.15175061 0.18392321 0.8696633
-0.14931697 0.18384553 0.86929601
-0.13744526 0.18618275 0.86914498
-0.1635675 0.18862291 0.86947232
-0.15642884 0.18858851 0.86931378
-0.14935404 0.1886315 0.8695119
-0.13038848 0.18862522 0.86948293
-0.18252139 0.19098622 0.86944163
-0.13513003 0.19099726 0.86949193
-0.17542949 0.19100578 0.86953074
-0.18492346 0.19338974 0.86959261
-0.17540783 0.1933521 0.86942333
-0.17311917 0.1934429 0.86983162
-0.16829036 0.19334322 0.86938339
-0.1564922 0.19340605 0.86966592
-0.14456084 0.19330107 0.86919385
-0.13269383 0.19327107 0.86905897
-0.14932187 0.19569978 0.86932456
-0.13987598 0.19574548 0.86952764
-0.16837713 0.19818494 0.86983162
-0.15410894 0.19813086 0.86959428
-0.17809902 0.14859189 0.87099457
-0.17561862 0.14850208 0.87046814
-0.14002953 0.1485045 0.87048227
-0.13765925 0.14850721 0.87049818
-0.13535604 0.14858364 0.87094617
-0.18030868 0.15082847 0.87020057
-0.1329378 0.15090755 0.87065685
-0.14007138 0.15329587 0.87074238
-0.13762546 0.15795976 0.87028444
-0.17571539 0.15808016 0.87094778
-0.18508323 0.16034298 0.87034392
-0.13057649 0.16041534 0.87073666
-0.18520598 0.1628233 0.87092113
-0.17327443 0.16276546 0.87061167
-0.18264247 0.16502607 0.87001842
-0.1328956 0.16509476 0.87038052
-0.14239284 0.16747569 0.87042421
-0.18279655 0.16991235 0.87075239
-0.14000577 0.1698308 0.87033445
-0.1542459 0.17220965 0.87036705
-0.15190879 0.17224975 0.87056977
-0.1494652 0.17216849 0.87015903
-0.13770425 0.17229189 0.87078273
-0.13297455 0.17468855 0.87089759
-0.16840984 0.17688011 0.8700006
-0.16604768 0.17689003 0.87004942
-0.18754543 0.17703466 0.8707608
-0.16383332 0.17705998 0.87088531
-0.13290116 0.17933735 0.87041688
-0.13047774 0.17926756 0.87007809
-0.17321371 0.18168695 0.87030661
-0.16139895 0.18173967 0.87055916
-0.15894802 0.18165062 0.87013257
-0.15425786 0.18171367 0.87043458
-0.18520132 0.18655854 0.87089926
-0.16850001 0.1864658 0.87046635
-0.14716908 0.18649602 0.87060744
-0.14474282 0.18642759 0.87028795
-0.13522801 0.18639213 0.87012243
-0.16604744 0.18874784 0.87004817
-0.15427141 0.18884824 0.870511
-0.15187022 0.18881305 0.87034875
-0.18517695 0.19128123 0.87078464
-0.17317897 0.19113788 0.87013209
-0.17092705 0.19127207 0.87074292
-0.1613685 0.19119562 0.87039495
-0.14717236 0.19124655 0.87062681
-0.14480856 0.19125895 0.87068325
-0.1708304 0.19353607 0.87025058
-0.1589447 0.19350578 0.87011439
-0.1803818 0.19597642 0.87055343
-0.17798682 0.19595219 0.87044585
-0.15427002 0.19596511 0.87050325
-0.13760436 0.19588584 0.8701511
-0.14245121 0.19602765 0.87078106
-0.1732076 0.19828616 0.87027586
-0.17085259 0.19830614 0.87036359
-0.14721557 0.19842437 0.87088245
-0.14241223 0.19834697 0.87054276
-0.1399623 0.19823796 0.87006426
-0.17563511 0.20072158 0.87054992
-0.16855168 0.20076388 0.87073338
-0.18058103 0.14868067 0.87151498
-0.17337723 0.14861469 0.8711282
-0.18299453 0.15108755 0.8716954
-0.1283789 0.15112844 0.87193125
-0.12600063 0.15112661 0.8719207
-0.17829934 0.15351275 0.87197423
-0.13786902 0.15348642 0.87182468
-0.18063109 0.15585068 0.87175649
-0.13308559 0.15582713 0.87162483
-0.17826705 0.15823781 0.87181634
-0.13540672 0.15813906 0.87127227
-0.18285587 0.16284458 0.87103492
-0.18060948 0.16295999 0.87165225
-0.17825632 0.16298085 0.87176383
-0.17576976 0.16287868 0.87121731
-0.13536693 0.16284111 0.87101632
-0.18524258 0.16522996 0.87109327
-0.13072439 0.16534938 0.87172288
-0.18058369 0.16768801 0.87152779
-0.17828898 0.16776417 0.87192357
-0.1757707 0.16762918 0.87122196
-0.14023592 0.16773368 0.87176514
-0.13062371 0.16997072 0.87105149
-0.12836592 0.1701252 0.87184316
-0.18290214 0.17238539 0.87125534
-0.14490689 0.17238919 0.87127453
-0.14253858 0.17239723 0.87131506
-0.14016949 0.17240457 0.87135226
-0.13538475 0.17236081 0.871131
-0.19015461 0.17487781 0.87184113
-0.1306427 0.17474481 0.87117815
-0.14013211 0.17710768 0.87111992
-0.13787472 0.1772583 0.87186074
-0.19001687 0.17950068 0.87120956
-0.18760166 0.18183628 0.87102187
-0.16393115 0.18191633 0.87140536
-0.15204944 0.18191017 0.87137586
-0.14965135 0.18188238 0.87124276
-0.1330767 0.18194997 0.87156653
-0.13073207 0.18199331 0.87177408
-0.16641256 0.18678604 0.8719613
-0.15927179 0.18677397 0.87190497
-0.14970486 0.18669885 0.87155432
-0.1330501 0.18666416 0.87139237
-0.13071673 0.18672401 0.87167174
-0.18774231 0.19147678 0.8716749
-0.16865034 0.19138192 0.87124306
-0.16626404 0.19136876 0.8711831
-0.16389522 0.19137563 0.87121439
-0.15914126 0.19137035 0.87119037
-0.15674034 0.19133839 0.87104487
-0.15206707 0.19143328 0.87147683
-0.14970863 0.19145511 0.87157625
-0.13304956 0.19141394 0.87138879
-0.13069737 0.19382343 0.87154269
-0.18305109 0.19629416 0.87196487
-0.17585658 0.19622272 0.8716476
-0.16635337 0.19622353 0.87165117
-0.14731926 0.19618855 0.87149578
-0.16624542 0.19847064 0.87108552
-0.15676989 0.19849879 0.87120908
-0.14496703 0.19859609 0.87163615
-0.13780424 0.19854571 0.87141502
-0.17815617 0.20088854 0.87127405
-0.1734267 0.20091224 0.87137681
-0.1710481 0.20090827 0.87135965
-0.15440705 0.20326406 0.87127644
-0.18315841 0.1464664 0.8724761
-0.18083766 0.14651297 0.8727535
-0.13319713 0.14882404 0.87235528
-0.18558252 0.15126026 0.87269181
-0.13078938 0.15116744 0.87215626
-0.12374228 0.15127131 0.87275559
-0.13564618 0.15366043 0.87281311
-0.13080201 0.15593721 0.87224048
-0.18325095 0.15605813 0.87291688
-0.12852973 0.15606506 0.87295568
-0.12613012 0.15604024 0.8728168
-0.13328628 0.15844162 0.87293923
-0.18784243 0.16067383 0.87213975
-0.12850372 0.16079161 0.87277907
-0.13320976 0.1631069 0.87243801
-0.12850858 0.16555597 0.87281203
-0.18322875 0.16793494 0.87281114
-0.13793027 0.16781966 0.87221199
-0.13556111 0.16783001 0.87226576
-0.13325007 0.16791396 0.87270206
-0.1854836 0.17020003 0.87222666
-0.12606084 0.17022166 0.87233746
-0.18543969 0.17253673 0.87202018
-0.13318253 0.17258412 0.87225968
-0.12852408 0.17509367 0.87291729
-0.13552204 0.1772895 0.87201428
-0.12846385 0.17976826 0.87250829
-0.18791997 0.18690139 0.87249976
-0.16413353 0.18689741 0.87248123
-0.16171344 0.18684906 0.87225544
-0.15697211 0.18686564 0.87233287
-0.15457784 0.18684576 0.87224013
-0.15216288 0.1867999 0.87202597
-0.19022755 0.18920934 0.87217551
-0.15456548 0.19158563 0.87217039
-0.18560827 0.19648506 0.87281293
-0.17362739 0.19638877 0.87238514
-0.17130828 0.19645627 0.87268502
-0.16885698 0.19637196 0.87231046
-0.16416439 0.19644731 0.8726452
-0.15698035 0.19638731 0.87237865
-0.1451415 0.1964563 0.87268513
-0.13561174 0.19643521 0.8725915
-0.17839541 0.19878016 0.87244403
-0.17595246 0.19870698 0.87212288
-0.16421065 0.19888201 0.87289107
-0.1593622 0.19877011 0.87239987
-0.15459357 0.20113176 0.87232894
-0.15217048 0.20107195 0.87206948
-0.14983349 0.20112582 0.87230313
-0.15694049 0.20346951 0.87215716
-0.15217932 0.20346089 0.87212014
-0.14982393 0.2034906 0.87224752
-0.14751269 0.20358218 0.87264007
-0.14514159 0.20359282 0.87268567
-0.17363657 0.20591158 0.87243128
-0.1711988 0.20583983 0.87212729
-0.1594692 0.20604242 0.87298566
-0.17135547 0.21078712 0.8729254
-0.16893989 0.21074204 0.87273878
-0.16181327 0.21075538 0.87279397
-0.15929377 0.21056977 0.87202531
-0.1569781 0.21065207 0.87236613
-0.15459153 0.2106403 0.87231737
-0.15220219 0.21062432 0.87225121
-0.14988214 0.21070525 0.87258637
-0.15469994 0.21554694 0.8729291
-0.17860632 0.14663418 0.87347555
-0.18334028 0.14899243 0.87334239
-0.12619713 0.15374272 0.87328047
-0.19291922 0.15618001 0.87359864
-0.19045155 0.1561092 0.87320256
-0.18582679 0.15622325 0.87384051
-0.12386301 0.15618153 0.8736071
-0.18094882 0.15850528 0.87328994
-0.13105379 0.15861954 0.87391949
-0.19051069 0.16091958 0.8734737
-0.1262823 0.16099258 0.87386996
-0.18803105 0.16321486 0.87301546
-0.13096555 0.16327384 0.87333095
-0.18812005 0.16567294 0.8734287
-0.1262835 0.16575819 0.87387812
-0.18581159 0.16811925 0.87376904
-0.18806762 0.17276725 0.87318528
-0.13097268 0.17280552 0.87337863
-0.19044966 0.17752934 0.87319386
-0.1333123 0.1775122 0.87310958
-0.13095468 0.17754249 0.87325859
-0.19053584 0.18475346 0.87358904
-0.12864244 0.18478142 0.87372124
-0.19059199 0.19195381 0.87384647
-0.13092858 0.19178641 0.87308443
-0.18819188 0.19669876 0.87376219
-0.16185382 0.19653003 0.87301266
-0.15964945 0.19674608 0.87397242
-0.16192047 0.19899163 0.87337214
-0.13573509 0.19899461 0.87338525
-0.18097194 0.20137908 0.87340152
-0.16666193 0.20134827 0.87326795
-0.1571781 0.20139663 0.87347764
-0.16674329 0.20382811 0.87369424
-0.15949757 0.20369904 0.87314099
-0.14292589 0.2038254 0.87368262
-0.17619768 0.20612566 0.87333834
-0.16899502 0.20605139 0.87302363
-0.16678661 0.20626323 0.87392122
-0.16436082 0.20620853 0.87368941
-0.1619418 0.2061608 0.87348717
-0.15711832 0.20608011 0.87314534
-0.15724567 0.21339311 0.87385309
-0.1691457 0.21576248 0.87380201
-0.15717056 0.21567202 0.87343568
-0.18597718 0.14681417 0.87454766
-0.13354905 0.14683305 0.87466013
-0.13120753 0.14688079 0.87494457
-0.12873963 0.14678623 0.87438124
-0.12643506 0.14687784 0.87492698
-0.12397933 0.14679399 0.8744275
-0.12166169 0.14687356 0.87490147
-0.1860691 0.14927179 0.87497991
-0.13116838 0.14922124 0.87468362
-0.12883031 0.14927475 0.87499726
-0.18827437 0.15151218 0.87414521
-0.18120979 0.15396611 0.87454945
-0.13350992 0.15394048 0.87440383
-0.1287351 0.1539311 0.87435049
-0.12402129 0.15399675 0.87472343
-0.13119869 0.15402532 0.87488568
-0.18824975 0.15625729 0.87403089
-0.12161849 0.15635738 0.87459075
-0.18599273 0.15874684 0.87462085
-0.18357174 0.15871492 0.87444496
-0.1287674 0.16350548 0.87456995
-0.190806 0.1659383 0.87482768
-0.13113497 0.16825235 0.87446082
-0.18833321 0.17062773 0.87441844
-0.12873721 0.17300066 0.87436491
-0.12633653 0.17536002 0.87424517
-0.1264156 0.18023886 0.87479234
-0.1908062 0.18263097 0.87482858
-0.12879609 0.18261765 0.8747648
-0.12869376 0.18962027 0.87406975
-0.13345261 0.19675873 0.87402856
-0.18129541 0.19935402 0.87496269
-0.13353281 0.19926085 0.87455374
-0.15981951 0.20172535 0.87490338
-0.14777181 0.20155694 0.87417293
-0.14545713 0.20165145 0.87458289
-0.14300647 0.20155747 0.87417525
-0.14059748 0.20152003 0.87401283
-0.1763519 0.2039234 0.87410271
-0.16925286 0.2039824 0.87435555
-0.17885081 0.20405605 0.87467128
-0.17414391 0.20412815 0.87498033
-0.17172047 0.20408256 0.87478489
-0.14069729 0.20404719 0.87463325
-0.17879483 0.20637564 0.87439746
-0.17164253 0.2087568 0.8743878
-0.15980615 0.20886242 0.87483019
-0.15738536 0.20881447 0.87462938
-0.14777026 0.20870332 0.87416381
-0.14537595 0.20868684 0.87409478
-0.17404221 0.21115994 0.8744694
-0.16686651 0.21112868 0.87433994
-0.16444127 0.21107486 0.87411702
-0.15980703 0.2136329 0.87483501
-0.15498872 0.21356539 0.87455863
-0.16681089 0.21582334 0.87404847
-0.16454805 0.21598041 0.87468463
-0.15971366 0.21589135 0.8743239
-0.15256529 0.21589336 0.87433207
-0.15979399 0.22076888 0.87476367
-0.16452913 0.22549151 0.87458408
-0.16212147 0.22545858 0.87445635
-0.15975037 0.22547625 0.87452489
-0.18846188 0.14689274 0.8750158
-0.17662099 0.14696337 0.87543648
-0.13598818 0.14689238 0.87501365
-0.19105154 0.14705016 0.8759535
-0.1193921 0.14701547 0.87574685
-0.12654448 0.14939193 0.87568414
-0.19089447 0.15170076 0.87523329
-0.12168107 0.1516674 0.87504083
-0.19096632 0.15414451 0.87556273
-0.18619972 0.15415005 0.8755942
-0.19092031 0.1588795 0.87535179
-0.18854196 0.15888602 0.87538761
-0.12890817 0.15891112 0.87552601
-0.12658854 0.15899517 0.87598902
-0.19342317 0.16136301 0.87588066
-0.12406317 0.16120423 0.87501884
-0.19104074 0.16375487 0.8759039
-0.12415285 0.16609453 0.8756513
-0.188648 0.1685254 0.87587994
-0.12884338 0.16837265 0.87508601
-0.19087313 0.17076765 0.87513548
-0.1910049 0.17327265 0.87573963
-0.12658629 0.17331894 0.87597352
-0.12884903 0.17792182 0.87512434
-0.12653483 0.18518245 0.87561744
-0.12888855 0.1875211 0.87539274
-0.12654226 0.18996717 0.87566876
-0.18864998 0.19479005 0.87588918
-0.13128756 0.1970851 0.87547833
-0.18389189 0.19958353 0.87597001
-0.13121821 0.19936614 0.87501585
-0.18381345 0.20188515 0.8755964
-0.13850129 0.20193735 0.87582284
-0.16463609 0.20416835 0.87515265
-0.16233063 0.2042691 0.87558448
-0.13851354 0.20434278 0.87590033
-0.13612677 0.20434397 0.87590545
-0.15508048 0.20653589 0.87507641
-0.15269607 0.20653711 0.8750816
-0.15038452 0.20663849 0.87551111
-0.14798303 0.20661756 0.87542248
-0.14563487 0.20667164 0.8756516
-0.16938165 0.20890796 0.87502092
-0.15512064 0.20897532 0.87530303
-0.15273699 0.20897843 0.87531608
-0.17423648 0.2090093 0.87544543
-0.16234367 0.20905928 0.87565476
-0.15041889 0.20907277 0.87571126
-0.14327553 0.20909871 0.87581992
-0.14792943 0.21131352 0.87510538
-0.14565609 0.21147621 0.87577915
-0.16939384 0.21369366 0.87508386
-0.16705362 0.21375142 0.87532037
-0.1622981 0.21377306 0.87540901
-0.15270703 0.21370843 0.87514436
-0.15046291 0.21390945 0.8759675
-0.17187981 0.21620558 0.87559652
-0.16222666 0.21606413 0.87502366
-0.15041704 0.21623127 0.87570053
-0.16234125 0.22099049 0.87564176
-0.15754855 0.22096387 0.87553626
-0.15512495 0.22091112 0.87532729
-0.16476262 0.22103678 0.87582517
-0.1671022 0.22574696 0.87557489
-0.15757139 0.22576974 0.87566322
-0.19345017 0.14705846 0.87600291
-0.13859898 0.14713195 0.87644064
-0.18882993 0.14956944 0.8767246
-0.12424869 0.14950165 0.87632728
-0.19357133 0.15192926 0.87655157
-0.1194584 0.15187407 0.87623316
-0.1887123 0.15425292 0.8761785
-0.18395703 0.15427083 0.87628025
-0.12194876 0.15439153 0.87696582
-0.19600891 0.15674651 0.87676734
-0.11947455 0.15667218 0.87635159
-0.12431106 0.1591364 0.87676716
-0.12185605 0.1614401 0.87629914
-0.12660816 0.16379617 0.8761248
-0.19362994 0.16631563 0.87681693
-0.12663561 0.16860908 0.87631482
-0.12420704 0.17094289 0.87603354
-0.19115518 0.18774299 0.8764286
-0.12908898 0.19259252 0.87675411
-0.12908986 0.19498372 0.87676007
-0.1648262 0.20201583 0.87616318
-0.16247328 0.20205979 0.87635386
-0.18163203 0.20450303 0.87658721
-0.18157794 0.20683086 0.8763262
-0.16725557 0.20923206 0.87637848
-0.16495107 0.20933914 0.87682694
-0.17202201 0.21399575 0.87632096
-0.16484889 0.21398668 0.87628382
-0.15780699 0.21893583 0.8769725
-0.16730449 0.2212411 0.87663478
-0.15297925 0.2212587 0.87670451
-0.1625118 0.22361201 0.87656164
-0.16005118 0.22351252 0.87617165
-0.15529811 0.22593506 0.87630445
-0.16257036 0.22847305 0.87687755
-0.16016915 0.22845739 0.87681746
-0.17467575 0.1473354 0.87765259
-0.11720995 0.14727303 0.87728113
-0.12204771 0.14973199 0.87767744
-0.19612901 0.15205976 0.87730455
-0.19378027 0.15448517 0.87749773
-0.19367874 0.15918556 0.87703794
-0.12196938 0.15919937 0.87711412
-0.12442055 0.16406064 0.87753946
-0.19129415 0.16875356 0.87706578
-0.12434424 0.17591284 0.87700123
-0.19379771 0.17602827 0.87757665
-0.12678671 0.17837644 0.8773604
-0.19371095 0.18073158 0.87718379
-0.12439767 0.1807716 0.87737805
-0.12685043 0.18325156 0.8778013
-0.12676716 0.18791363 0.8772251
-0.18666324 0.19999453 0.87777388
-0.18651235 0.2022236 0.87706429
-0.13639538 0.20235492 0.87763387
-0.13399231 0.20473073 0.87756324
-0.13165407 0.20481449 0.8779223
-0.14347793 0.20700338 0.87705719
-0.17704342 0.20950705 0.87753028
-0.14116158 0.20950449 0.87751949
-0.17709886 0.21196541 0.87780505
-0.14348781 0.2117994 0.87711757
-0.14840657 0.21678127 0.87792796
-0.16023542 0.21898769 0.87718022
-0.15543321 0.21895936 0.87706673
-0.16994251 0.21917196 0.8779183
-0.16977863 0.22135139 0.87707174
-0.1650499 0.2238137 0.87735224
-0.15794307 0.22390972 0.8777287
-0.16512208 0.22869672 0.87773597
-0.19408622 0.1451463 0.87888318
-0.14126019 0.14741597 0.87813252
-0.19151233 0.1497983 0.87806612
-0.11978084 0.14988908 0.87859827
-0.1197896 0.15469024 0.87866253
-0.19650452 0.16193479 0.87898427
-0.11982911 0.16192891 0.87895232
-0.12454573 0.16901457 0.87842232
-0.19406208 0.17147762 0.87877387
-0.12459293 0.17866001 0.87875521
-0.12933433 0.19774741 0.87842041
-0.12930267 0.20009284 0.87820536
-0.14130333 0.20732048 0.87840068
-0.14854614 0.21458982 0.87875366
-0.17490369 0.21699606 0.87879783
-0.14617561 0.217022 0.87890285
-0.167613 0.21925509 0.87825131
-0.16521883 0.21925484 0.8782503
-0.16287969 0.21932866 0.878546
-0.15326965 0.2192844 0.87836874
-0.17238045 0.22162272 0.87814689
-0.15093485 0.2217661 0.87871504
-0.16771109 0.22417417 0.87876534
-0.15571347 0.22414428 0.87864816
-0.16998067 0.226402 0.87811548
-0.15330394 0.22651795 0.87856519
-0.15801235 0.22879513 0.87811369
-0.19190685 0.14531009 0.879875
-0.19654249 0.14758746 0.87915409
-0.17258236 0.14759105 0.87917548
-0.14393361 0.14770307 0.8798427
-0.11757137 0.15012588 0.87998629
-0.11745809 0.15237762 0.87913841
-0.19663408 0.1548489 0.87956381
-0.1198732 0.15959172 0.87927574
-0.19412777 0.16434702 0.8790713
-0.12469523 0.17401208 0.87947679
-0.19425702 0.17884327 0.87965661
-0.12231752 0.18123306 0.87961775
-0.19421536 0.18599677 0.8794679
-0.12468141 0.18597801 0.87937921
-0.12465636 0.19073379 0.8792026
-0.18937811 0.20033535 0.87926978
-0.13426523 0.20275076 0.87935066
-0.13192813 0.2028428 0.87974989
-0.18467937 0.20523417 0.87972116
-0.12955539 0.20528097 0.87992179
-0.18453503 0.20746985 0.87903357
-0.13913749 0.2076616 0.87984598
-0.17977193 0.20989996 0.87917596
-0.13905917 0.20994169 0.87935072
-0.13666534 0.20994648 0.87937087
-0.17989688 0.21244401 0.87978703
-0.14154911 0.21247819 0.87992859
-0.17503135 0.21475725 0.87943929
-0.14624064 0.21472171 0.8792938
-0.17259783 0.21950547 0.87925428
-0.15110795 0.21962245 0.87972283
-0.1703385 0.22447994 0.87996393
-0.15352134 0.22444096 0.87981117
-0.15108751 0.22678572 0.8796038
-0.17045061 0.14782065 0.88054317
-0.14650628 0.14787906 0.88089108
-0.1944076 0.15018596 0.88033843
-0.11760028 0.15736067 0.88020271
-0.19693911 0.15989165 0.88092822
-0.1224054 0.16456734 0.88024968
-0.12240344 0.16696408 0.88023561
-0.19688372 0.16704847 0.8806805
-0.19442138 0.16939525 0.88040084
-0.12242442 0.17659186 0.88038641
-0.19445015 0.18382144 0.88053113
-0.12484352 0.18381967 0.88052261
-0.12239697 0.18614928 0.88018906
-0.12481372 0.18857497 0.88031244
-0.1272179 0.19338115 0.88034427
-0.12730031 0.19590764 0.88091451
-0.13677728 0.20771948 0.88009119
-0.18252169 0.210307 0.88088089
-0.13444249 0.21021885 0.88051164
-0.13203722 0.21021067 0.88047737
-0.14410003 0.21510418 0.88085997
-0.14170776 0.21511756 0.88091481
-0.1777315 0.21752521 0.88094079
-0.14411861 0.21753331 0.88097358
-0.17531686 0.22231093 0.8808738
-0.14885643 0.22223912 0.88058931
-0.17274988 0.22689532 0.88002884
-0.14888947 0.22709019 0.88078469
-0.19716381 0.14565 0.88193327
-0.16819899 0.14795136 0.88132179
-0.14896353 0.14793475 0.88122284
-0.11536261 0.14797081 0.8814376
-0.16589129 0.14803581 0.88182485
-0.1970924 0.15040356 0.88161391
-0.19944273 0.15276624 0.8813805
-0.11774413 0.15515094 0.88127935
-0.12256163 0.17198482 0.88137317
-0.12261618 0.17927201 0.88176543
-0.12019444 0.18164808 0.88163203
-0.12264706 0.19133796 0.88198751
-0.12733637 0.20076695 0.88116401
-0.1297805 0.20323497 0.88145077
-0.18752538 0.20812941 0.88182801
-0.13462698 0.2081039 0.88171995
-0.12979542 0.21046723 0.88155204
-0.1851546 0.21297474 0.88198495
-0.18269984 0.21291576 0.88174069
-0.17778084 0.21518363 0.88118535
-0.13211848 0.21514305 0.88101918
-0.1802415 0.21765648 0.88147241
-0.17550634 0.22014746 0.8818258
-0.14897828 0.2200187 0.88131005
-0.14662208 0.22249098 0.88158727
-0.17301603 0.22484238 0.88138473
-0.15139201 0.22484031 0.88137662
-0.14663681 0.22731999 0.88167596
-0.18997112 0.14566484 0.8820231
-0.12037189 0.14581522 0.88293368
-0.11790322 0.14573866 0.88247007
-0.19960311 0.15769795 0.88208926
-0.11792707 0.16020392 0.88264865
-0.11786904 0.16252984 0.88221425
-0.12036909 0.16506527 0.88291311
-0.19478579 0.17452142 0.88205099
-0.19725119 0.17698054 0.88232416
-0.19727848 0.18181585 0.88244629
-0.12274 0.184265 0.88265586
-0.12277384 0.1891291 0.88289922
-0.12745942 0.19855672 0.88201553
-0.19008835 0.20349243 0.88256741
-0.18770146 0.20591885 0.88265604
-0.12755571 0.20592487 0.88268185
-0.18997601 0.2081808 0.88204581
-0.13228844 0.20820601 0.88215262
-0.12999785 0.20838878 0.88292694
-0.18525478 0.21068452 0.88246214
-0.12759921 0.21080884 0.88298285
-0.18767807 0.21311022 0.88254601
-0.13956824 0.21311598 0.88256985
-0.13722442 0.21321219 0.88296831
-0.18291074 0.21556778 0.8827585
-0.1804491 0.21550165 0.88248765
-0.13962619 0.2156112 0.8829363
-0.12990198 0.2154499 0.88227576
-0.18279299 0.21783373 0.88219023
-0.1419162 0.21783875 0.88221055
-0.17807241 0.22034837 0.88263059
-0.14674579 0.22027361 0.88233113
-0.1779861 0.22264631 0.88220274
-0.14443101 0.22281806 0.88288325
-0.14925352 0.2252387 0.88293827
-0.17806694 0.22755912 0.88260347
-0.17565529 0.22755159 0.88257426
-0.12285903 0.14591071 0.88351184
-0.11561691 0.15070494 0.88338053
-0.11563481 0.1531366 0.88351727
-0.19741574 0.16509278 0.88306022
-0.12280906 0.16992469 0.88315248
-0.19745624 0.17234938 0.88324142
-0.12291033 0.17488344 0.88388073
-0.12047026 0.17724752 0.88365519
-0.12040357 0.18677887 0.88316602
-0.19520901 0.1917675 0.88396752
-0.12521932 0.19400255 0.88317317
-0.12530363 0.19654217 0.88376778
-0.12772602 0.20379055 0.88386035
-0.13487794 0.21330762 0.88336349
-0.13244614 0.21326916 0.88320422
-0.13729306 0.21572687 0.88340992
-0.13485377 0.21567687 0.88320524
-0.13968137 0.21810411 0.88328522
-0.13728403 0.21812055 0.8833518
-0.13487557 0.21811959 0.88334793
-0.18064778 0.22055526 0.88345933
-0.18056928 0.22286656 0.88307542
-0.17591827 0.22548291 0.88389558
-0.14700571 0.22548249 0.88389397
-0.14452204 0.22777471 0.88343966
-0.14208923 0.22773515 0.88328618
-0.13976234 0.2278669 0.88379723
-0.18818115 0.14614189 0.88491172
-0.1158016 0.14612207 0.88479167
-0.20023265 0.14854725 0.88487136
-0.20004517 0.15563746 0.88404286
-0.11575449 0.15811673 0.88443172
-0.20014673 0.16294941 0.88449168
-0.12051972 0.16768153 0.884018
-0.19773813 0.17982845 0.88450229
-0.12061709 0.1798752 0.88473219
-0.11813661 0.18218067 0.88421696
-0.12059794 0.18466915 0.88459176
-0.12788375 0.2088667 0.88495189
-0.1881566 0.2112418 0.88479632
-0.19059291 0.21368107 0.88491005
-0.13019912 0.2135323 0.88429397
-0.18567589 0.21598527 0.88446808
-0.12776361 0.21590041 0.88412058
-0.18813398 0.21603943 0.88468993
-0.1880478 0.2183509 0.88428468
-0.18559174 0.21829721 0.8840673
-0.13271441 0.21852583 0.88499314
-0.14462005 0.22069992 0.88403875
-0.14222501 0.22313277 0.88413024
-0.18092482 0.22571725 0.8848142
-0.17838293 0.22555283 0.8841697
-0.14475225 0.22572558 0.88484687
-0.14230721 0.22567311 0.88464117
-0.19787914 0.14376572 0.88513303
-0.1954599 0.14376093 0.88510358
-0.12555791 0.14624916 0.88556123
-0.2003797 0.15107013 0.88552117
-0.11585531 0.15584154 0.88520211
-0.20046331 0.16079235 0.88589066
-0.11588127 0.16311683 0.88540041
-0.11827686 0.16550529 0.88526672
-0.11831392 0.16797099 0.885544
-0.19789296 0.17031766 0.8851949
-0.11832227 0.17763893 0.88560653
-0.1135307 0.17769602 0.88589114
-0.11588655 0.1824328 0.88544071
-0.12072864 0.1921109 0.88555044
-0.19319814 0.19940764 0.88579541
-0.12557836 0.19938739 0.88570541
-0.12549777 0.20167218 0.88513708
-0.19078287 0.20665047 0.88579202
-0.19069953 0.21138713 0.88540506
-0.12554251 0.21139848 0.88545263
-0.12802173 0.21392173 0.8859067
-0.12553719 0.21621652 0.88541508
-0.18352844 0.22112454 0.88573962
-0.14245895 0.2210858 0.88558447
-0.14006846 0.22353727 0.88573301
-0.13763472 0.22350581 0.88560838
-0.11360925 0.14882134 0.88650411
-0.11361465 0.15366158 0.88654619
-0.11363436 0.15852225 0.88669997
-0.11602811 0.160907 0.88652235
-0.11604644 0.16818313 0.88666242
-0.12081818 0.17292811 0.88620722
-0.11602753 0.17782174 0.88651794
-0.11839015 0.18740247 0.8861146
-0.19572584 0.18985927 0.88630784
-0.12088483 0.18994242 0.88669604
-0.19331764 0.19711496 0.8863433
-0.12327884 0.19715665 0.88653082
-0.12333886 0.20208807 0.88696241
-0.12575866 0.20450918 0.88697714
-0.12562697 0.20671025 0.88604832
-0.19345947 0.20934859 0.88699359
-0.13048632 0.21883486 0.88624465
-0.18358544 0.22360836 0.8860147
-0.13540922 0.22381742 0.88684309
-0.14016211 0.22610269 0.88632518
-0.13784938 0.22627218 0.88698953
-0.18621211 0.14649047 0.88702238
-0.12830034 0.14662461 0.88783461
-0.20326963 0.1538443 0.8876003
-0.2033021 0.15870856 0.8877421
-0.11379179 0.16358256 0.88792843
-0.1161854 0.16596471 0.8877241
-0.20076452 0.16828923 0.88722181
-0.12097551 0.17073448 0.88736123
-0.11851467 0.1730919 0.88704664
-0.11614926 0.17317022 0.88744801
-0.11367298 0.17308307 0.88700134
-0.19830196 0.17550543 0.88702434
-0.12102926 0.17565009 0.88775545
-0.1113767 0.17811307 0.88797033
-0.1185995 0.18047482 0.88768148
-0.11855984 0.1852522 0.88738465
-0.19845511 0.18773976 0.88770944
-0.11854338 0.19248207 0.88726145
-0.19599956 0.19496341 0.88754737
-0.12343856 0.19499242 0.8876794
-0.12103066 0.1974313 0.88776577
-0.1258847 0.20955451 0.88786608
-0.1934783 0.21420504 0.88707995
-0.12583002 0.21430176 0.8874805
-0.19120517 0.21678737 0.88775271
-0.19117533 0.21917301 0.88761413
-0.1283242 0.21926825 0.88799977
-0.1862547 0.22149542 0.88722521
-0.14035648 0.22157758 0.88755435
-0.13798507 0.22165455 0.88786262
-0.13556862 0.22166064 0.88788706
-0.133094 0.22398937 0.88752437
-0.13068686 0.22401012 0.88760662
-0.12827277 0.22401954 0.88764393
-0.2011628 0.14681408 0.88898188
-0.11386929 0.151584 0.88853323
-0.11147653 0.1540464 0.88876635
-0.11389884 0.15646857 0.88876373
-0.20102051 0.16608231 0.88835311
-0.11388339 0.16855885 0.88864321
-0.11391935 0.17588128 0.88892388
-0.11625484 0.18059136 0.8882547
-0.1138503 0.18303946 0.88838506
-0.11633025 0.18555412 0.8888309
-0.11627995 0.18789566 0.88844657
-0.11623451 0.19266385 0.88809937
-0.19376078 0.2048315 0.88837504
-0.19378504 0.21212275 0.88848627
-0.12354942 0.21212046 0.88847667
-0.12350868 0.2168926 0.88818365
-0.18890567 0.22176842 0.88831878
-0.13324277 0.22181779 0.88851649
-0.18899637 0.22429749 0.88874531
-0.18644798 0.22414623 0.88814592
-0.12594406 0.22418126 0.88828474
-0.18400411 0.22653896 0.8880353
-0.13572796 0.22676735 0.88893062
-0.1307859 0.22660118 0.88827926
-0.12845606 0.22676267 0.88891226
-0.12604214 0.22677907 0.88897657
-0.11396048 0.1468575 0.88924479
-0.20366324 0.15656634 0.88931906
-0.11151383 0.15894483 0.88906372
-0.11400652 0.16146635 0.88960403
-0.11878265 0.17105988 0.88905239
-0.20132729 0.17361137 0.88970882
-0.11155842 0.17355487 0.8894192
-0.11878863 0.17591555 0.88909709
-0.10911707 0.17837599 0.88928109
-0.11393585 0.18075357 0.88905257
-0.20134859 0.1881825 0.88980293
-0.11888857 0.19061701 0.88984513
-0.19893855 0.19304839 0.8898719
-0.12132463 0.19548504 0.88992202
-0.11880682 0.19775766 0.88923329
-0.11646684 0.19790025 0.88987446
-0.12364306 0.20016281 0.88914996
-0.19407576 0.20273897 0.8898192
-0.1212513 0.20263985 0.88938415
-0.12371 0.20512117 0.88963139
-0.12362724 0.20740733 0.88903624
-0.19402844 0.21723902 0.88960224
-0.19397502 0.21960345 0.88935733
-0.13090146 0.22195451 0.88906413
-0.1940199 0.22450389 0.88956308
-0.19159633 0.22450534 0.88956881
-0.13336447 0.2268687 0.88932794
-0.10932086 0.15928061 0.89094198
-0.20387909 0.1640124 0.89026159
-0.11173274 0.16411324 0.89080894
-0.11416781 0.16655147 0.89086258
-0.11173417 0.16897182 0.89082038
-0.1164922 0.17125534 0.89006829
-0.11648976 0.17610401 0.89004964
-0.20140234 0.17852831 0.89004046
-0.20158969 0.18355112 0.89086843
-0.11170146 0.18348749 0.89055961
-0.11417873 0.18842463 0.89094782
-0.19912353 0.19079998 0.89069933
-0.1166008 0.19084254 0.89089799
-0.11413233 0.19320324 0.89058572
-0.11892004 0.20279855 0.89008069
-0.19425447 0.20778114 0.89063859
-0.12145106 0.21268694 0.89084941
-0.12378749 0.21495572 0.89018869
-0.12135604 0.21737337 0.89015245
-0.1261923 0.21977092 0.89003557
-0.19187823 0.22240725 0.89087766
-0.12865973 0.22226842 0.89032155
-0.12378728 0.22466138 0.89018714
-0.19437312 0.14474829 0.89118254
-0.20426032 0.15216285 0.89192629
-0.1117743 0.15688697 0.89114028
-0.20668721 0.15945323 0.89190751
-0.2041273 0.16178241 0.89134544
-0.109371 0.16421302 0.89135057
-0.20184156 0.17162345 0.89198148
-0.11419953 0.1714558 0.89111012
-0.11177858 0.17632657 0.89117444
-0.1117826 0.18119147 0.89120644
-0.10941199 0.18371929 0.89168465
-0.19929324 0.18610267 0.89145851
-0.11177387 0.18846461 0.89113688
-0.10941868 0.18859199 0.89173913
-0.11911295 0.19583705 0.89152449
-0.11662067 0.19573279 0.89104986
-0.12150898 0.20064102 0.89127421
-0.11670043 0.20315823 0.89165932
-0.12158736 0.20806356 0.89184916
-0.19695908 0.2105048 0.89189237
-0.12398063 0.2104305 0.8915776
-0.19677936 0.21517058 0.89107847
-0.12158677 0.21535563 0.89184487
-0.194534 0.22266752 0.89192021
-0.12638439 0.22253525 0.89139038
-0.19697143 0.22510585 0.89194828
-0.20189947 0.14491962 0.89223737
-0.11190242 0.14977111 0.89216173
-0.1095283 0.15471652 0.8926326
-0.11200166 0.16207419 0.89295304
-0.107085 0.16443366 0.8925482
-0.20445664 0.1693442 0.89278358
-0.10709915 0.16932192 0.89266616
-0.11195609 0.17174047 0.89258969
-0.10946626 0.17408325 0.89212698
-0.10705842 0.17898688 0.89232665
-0.10704164 0.18382275 0.89218682
-0.11432724 0.18623798 0.89210665
-0.10709488 0.18878052 0.89263058
-0.2020478 0.19370376 0.8928929
-0.19960186 0.19612579 0.89283895
-0.11434493 0.19842736 0.8922447
-0.11436231 0.2033225 0.8923803
-0.12171797 0.20585342 0.89280719
-0.11925171 0.20823012 0.8925631
-0.19711368 0.21310309 0.89259243
-0.11925317 0.2130987 0.89257407
-0.11930062 0.21805145 0.8929292
-0.19710867 0.22039667 0.89256972
-0.12405193 0.22027829 0.89209032
-0.12412954 0.22284932 0.89264846
-0.11925946 0.22284251 0.89262116
-0.12163208 0.22516362 0.89217716
-0.11202087 0.15236413 0.89310616
-0.10965958 0.16221023 0.89370245
-0.20467815 0.16709143 0.89375079
-0.11206202 0.16703226 0.89343423
-0.10961596 0.16945106 0.89334697
-0.20209046 0.17670389 0.89308143
-0.10963237 0.17678288 0.89348066
-0.10959408 0.18159042 0.89316869
-0.1047489 0.1840674 0.8933742
-0.20216571 0.18651089 0.89341396
-0.11203216 0.18646543 0.89319617
-0.1048108 0.18904944 0.89390212
-0.20225351 0.1914646 0.89380193
-0.11446071 0.19132455 0.89314812
-0.11207642 0.19141044 0.89354908
-0.11201533 0.19374044 0.893062
-0.11453051 0.19631335 0.89369279
-0.19729644 0.19868876 0.89342004
-0.19721186 0.20103785 0.89303702
-0.11936937 0.20112942 0.89344376
-0.11210834 0.20364678 0.89380354
-0.19724068 0.20593649 0.8931675
-0.1193748 0.20600955 0.89348441
-0.12186345 0.21097256 0.89387429
-0.19740655 0.21829307 0.89391863
-0.12176519 0.22054084 0.89315355
-0.12176825 0.22298104 0.89317602
-0.11467773 0.14534259 0.89484155
-0.1121543 0.14767088 0.89416999
-0.2048222 0.15014347 0.89437979
-0.10971098 0.15741178 0.89412135
-0.20729399 0.16235967 0.89452589
-0.20725454 0.16476665 0.89435565
-0.1073172 0.16722843 0.89448357
-0.10487436 0.16965918 0.89444417
-0.10248868 0.16974601 0.89490199
-0.10736387 0.174619 0.89487261
-0.20474161 0.17932813 0.89402789
-0.10487178 0.17940721 0.89442217
-0.20230415 0.18176468 0.8940258
-0.10730731 0.18184099 0.89440113
-0.20476863 0.18422639 0.89414591
-0.10243428 0.18428431 0.894427
-0.10974111 0.18670982 0.89436686
-0.10728155 0.18667215 0.89418644
-0.20489152 0.18921447 0.89468247
-0.10249638 0.18927512 0.89496922
-0.11217322 0.19888908 0.89432079
-0.11706146 0.20134868 0.89441776
-0.10979605 0.20387715 0.89481467
-0.19747616 0.20861991 0.89423388
-0.11711153 0.20875207 0.89480036
-0.11713417 0.21367151 0.89497328
-0.11950628 0.21598917 0.89446849
-0.20007923 0.2161113 0.89497429
-0.11952677 0.22578059 0.89462185
-0.11726636 0.14552803 0.89598328
-0.11227851 0.14539436 0.89516026
-0.20748846 0.15763076 0.89536512
-0.10983376 0.16734779 0.89512199
-0.10991766 0.17235926 0.89580572
-0.10505264 0.17483209 0.89596462
-0.20755452 0.17965353 0.89565015
-0.20755854 0.1845399 0.89566749
-0.10012165 0.18451548 0.895549
-0.10503022 0.18700346 0.89577347
-0.10988556 0.19427891 0.89554411
-0.10987412 0.19914041 0.89545095
-0.11478561 0.20163359 0.89568335
-0.19778168 0.20406005 0.89561737
-0.11718602 0.20644419 0.89536947
-0.11475716 0.20646538 0.89546132
-0.11476631 0.20892291 0.89553273
-0.11961365 0.21130249 0.89527214
-0.11714551 0.21857178 0.89505994
-0.20015965 0.22107925 0.89533401
-0.11961294 0.22106265 0.89526683
-0.19765067 0.22344241 0.89502406
-0.11719929 0.22355393 0.8954708
-0.11982307 0.14566712 0.89683956
-0.10999873 0.15049377 0.89646649
-0.20779446 0.15541899 0.89668554
-0.10753677 0.16024096 0.89631367
-0.10508256 0.16511008 0.89621979
-0.10755973 0.1724938 0.896505
-0.20519589 0.17484124 0.89601153
-0.10264571 0.17489229 0.89627314
-0.1075676 0.17739426 0.89657062
-0.10267943 0.17983755 0.89656758
-0.205401 0.1823505 0.89690721
-0.1050701 0.18218914 0.89611357
-0.10272132 0.18235581 0.89693332
-0.2052687 0.18711953 0.89632946
-0.10266126 0.18713613 0.89640892
-0.10995305 0.19195563 0.89609414
-0.10757107 0.19206388 0.89659953
-0.10752632 0.19442697 0.89622658
-0.11242905 0.19689934 0.89636046
-0.20294891 0.19701241 0.89687514
-0.20052527 0.19947812 0.89696944
-0.10757938 0.19941126 0.89666885
-0.11245734 0.20183679 0.896586
-0.11004303 0.20189115 0.89682752
-0.1149086 0.21407016 0.89664304
-0.11729366 0.2164053 0.89619184
-0.1100696 0.14570034 0.89704406
-0.11017787 0.15318647 0.89792639
-0.10772467 0.15562598 0.89787978
-0.10765347 0.16286071 0.89728636
-0.10519619 0.16773421 0.8971889
-0.10524028 0.17269775 0.89756495
-0.10274959 0.17262371 0.89718014
-0.20789149 0.17505448 0.89710426
-0.20552433 0.17756739 0.89744574
-0.097852968 0.1848412 0.89712989
-0.2105372 0.18501198 0.89795876
-0.20803785 0.18741313 0.89773583
-0.20790754 0.1897413 0.89717352
-0.10029104 0.18971816 0.89706409
-0.20053875 0.20193671 0.89702982
-0.10768756 0.20450506 0.89757055
-0.11260565 0.20699732 0.89776844
-0.11257949 0.20939583 0.89755982
-0.11750062 0.21189278 0.89777315
-0.20056716 0.21908383 0.89715683
-0.11498268 0.21909952 0.89722109
-0.11740819 0.22150715 0.89706695
-0.20069854 0.22412157 0.89774454
-0.11025164 0.14839053 0.89852756
-0.20831358 0.17050925 0.89892572
-0.20813631 0.17770886 0.8981607
-0.10531282 0.17771339 0.89818364
-0.21062678 0.18019323 0.89834082
-0.10040909 0.18014893 0.89811999
-0.20810387 0.18257688 0.89802068
-0.1004202 0.18261726 0.89821935
-0.10041747 0.18750899 0.89819497
-0.2058565 0.19255587 0.89889622
-0.10539478 0.19255297 0.89888269
-0.10291692 0.19250125 0.89864123
-0.10530517 0.19483738 0.89811838
-0.10286716 0.19485654 0.89820671
-0.11020933 0.19729966 0.89818281
-0.10782288 0.19741291 0.89869839
-0.10539536 0.1999047 0.89888763
-0.20097643 0.2072784 0.89898753
-0.11027268 0.2072119 0.8986991
-0.11029357 0.20970133 0.89886934
-0.20090757 0.2121067 0.89867955
-0.20087607 0.21452272 0.89853865
-0.11275877 0.21463029 0.8989892
-0.11514835 0.216966 0.89851385
-0.20342942 0.21708305 0.89899856
-0.11515041 0.22431764 0.89852995
-0.10790367 0.15833615 0.8993718
-0.10551445 0.16088271 0.8999033
-0.10300569 0.16815065 0.89941639
-0.20588639 0.17297901 0.89902675
-0.21086946 0.17549774 0.89937586
-0.10056758 0.1755293 0.89953762
-0.10298926 0.17792891 0.89927286
-0.2134185 0.18538864 0.89978689
-0.10790299 0.20246263 0.89936608
-0.11522939 0.21221684 0.8991462
-0.20360263 0.22217311 0.899764
-0.11529475 0.22214648 0.89965618
-0.10798187 0.14618427 0.90002352
-0.10804754 0.15118279 0.90057087
-0.10558446 0.16344409 0.90050048
-0.10308761 0.16583076 0.9001317
-0.20873491 0.16839883 0.90074384
-0.20873024 0.1733055 0.90072364
-0.21353148 0.17567088 0.90026319
-0.21107283 0.17812091 0.90024328
-0.21347834 0.1805339 0.9000392
-0.098266222 0.1807103 0.90091866
-0.21114062 0.18308753 0.90053236
-0.098184414 0.18301359 0.90016866
-0.21111505 0.18797418 0.90042335
-0.098268047 0.18808109 0.90093541
-0.21106455 0.19038303 0.90020794
-0.10562915 0.19789247 0.90088153
-0.20378329 0.20027715 0.90056241
-0.20374966 0.20269848 0.90041375
-0.20134693 0.20520552 0.90064484
-0.20130903 0.21007597 0.90047526
-0.11298493 0.21260536 0.9007923
-0.10816928 0.14889556 0.90158564
-0.1007842 0.17099284 0.90147519
-0.21137723 0.17100543 0.90154159
-0.21381383 0.17836039 0.90145361
-0.10084078 0.1784648 0.90198129
-0.21632296 0.18577662 0.90166998
-0.098327182 0.19065155 0.90147758
-0.20885946 0.19306679 0.9012813
-0.10076528 0.19307208 0.90130597
-0.10075439 0.19550775 0.90120852
-0.20641275 0.19798991 0.90132511
-0.2039519 0.21272697 0.90130752
-0.11056842 0.21513645 0.90110928
-0.11306297 0.21766642 0.90141445
-0.20401524 0.22016577 0.90158743
-0.11302986 0.22005908 0.90115052
-0.10823812 0.15390863 0.90215945
-0.21168603 0.16633314 0.90285861
-0.21160126 0.17364672 0.90249705
-0.10087306 0.17360304 0.90227002
-0.21653745 0.18104033 0.90256399
-0.21400751 0.18344085 0.9022702
-0.21401872 0.1883696 0.90231746
-0.20668401 0.19579001 0.90250963
-0.10339382 0.19831507 0.90280539
-0.10340817 0.20080385 0.90293074
-0.20671013 0.20319597 0.90262365
-0.10584006 0.20320873 0.90268034
-0.10581656 0.20562361 0.90247989
-0.20418368 0.20804949 0.90233183
-0.10829873 0.20812622 0.90266454
-0.10826922 0.21052936 0.90241861
-0.11067918 0.21289323 0.90201199
-0.20412026 0.21536142 0.90205157
-0.10588044 0.15651774 0.90302473
-0.1058869 0.15898894 0.90307981
-0.10349141 0.16155387 0.90365756
-0.2143659 0.17389379 0.90378118
-0.21677186 0.17631051 0.90354109
-0.096135132 0.18625085 0.90397161
-0.21433079 0.19110744 0.90363318
-0.20939417 0.19848715 0.90358871
-0.20690535 0.20092514 0.90347612
-0.20451155 0.20592001 0.90378076
-0.20443653 0.21076977 0.90344918
-0.11335356 0.22315271 0.90373123
-0.11099948 0.14446537 0.90462238
-0.10852918 0.14445946 0.90458536
-0.10603952 0.1468921 0.90438151
-0.21196447 0.16901621 0.90404618
-0.21698593 0.17894997 0.90443337
-0.21702135 0.18391065 0.90458101
-0.21216293 0.19384038 0.90489262
-0.20963483 0.1962494 0.9046272
-0.20969617 0.20370659 0.90489191
-0.20718777 0.20859767 0.90470934
-0.20718887 0.213531 0.90471417
-0.20714504 0.21841699 0.90452272
-0.10369476 0.16433938 0.90543312
-0.21471615 0.17171034 0.90525788
-0.098716192 0.17660379 0.90504408
-0.21973428 0.18658631 0.90559977
-0.21719192 0.18899056 0.90529197
-0.098792881 0.19402343 0.90574712
-0.20739768 0.20634042 0.90562594
-0.10623845 0.15210731 0.9060781
-0.10379826 0.15709181 0.90633678
-0.2126026 0.15963823 0.90676785
-0.10134479 0.16206016 0.90648943
-0.10130242 0.16693223 0.90611047
-0.1013868 0.16954325 0.90686524
-0.098853707 0.17932025 0.90630484
-0.21985599 0.18174988 0.90610135
-0.096390352 0.18427467 0.90637141
-0.21759014 0.19180928 0.90695179
-0.098832175 0.19657052 0.90610743
-0.21259961 0.19918269 0.90675509
-0.10138679 0.19920686 0.90686512
-0.21002813 0.20155858 0.90632439
-0.21017562 0.2091168 0.90696084
-0.20768023 0.21650934 0.9068597
-0.11120073 0.21883708 0.90626246
-0.1112688 0.22144288 0.9068172
-0.10643189 0.1449613 0.90772784
-0.10394196 0.14741351 0.90759164
-0.10639364 0.14985608 0.90740168
-0.10643394 0.1548616 0.90774542
-0.10387751 0.15968418 0.90702885
-0.21288979 0.16480397 0.90799278
-0.098931171 0.17204364 0.90701503
-0.09647119 0.18195651 0.90713155
-0.22020119 0.18450901 0.90752405
-0.096558474 0.18954594 0.90795231
-0.21280634 0.1969023 0.90763682
-0.20775667 0.21164331 0.90719348
-0.10885528 0.21414213 0.90730345
-0.10892023 0.21674453 0.90784478
-0.20782417 0.22160673 0.90748823
-0.11400683 0.14515482 0.9089396
-0.10161716 0.1649733 0.90892571
-0.099079229 0.16734895 0.9083724
-0.21800308 0.17483501 0.90867299
-0.099109612 0.17483078 0.90865099
-0.10157188 0.20204701 0.9085207
-0.21308905 0.20459597 0.90884262
-0.10402648 0.20448047 0.90832961
-0.21044801 0.2069124 0.90813631
-0.10409901 0.20710072 0.90896285
-0.10647126 0.20937108 0.90806365
-0.21058144 0.21447459 0.90871209
-0.10663687 0.14276141 0.9094761
-0.10417666 0.14278729 0.90964097
-0.10164637 0.15758581 0.90918696
-0.10170113 0.16015035 0.90967679
-0.22323394 0.18745215 0.9098022
-0.21567111 0.19478108 0.909284
-0.21332926 0.20234644 0.90986711
-0.10661026 0.21212289 0.90924919
-0.10425454 0.14537542 0.91032094
-0.10430137 0.15288822 0.91072989
-0.21595933 0.17022263 0.91049916
-0.09932477 0.1702459 0.91062361
-0.22103213 0.17775597 0.91094863
-0.22082734 0.18007207 0.91010463
-0.2208046 0.18997571 0.91001093
-0.096833333 0.19256747 0.91053683
-0.21600282 0.20004542 0.91068256
-0.21105337 0.21247269 0.9107486
-0.1019241 0.14310595 0.9116711
-0.10441732 0.15057293 0.91174227
-0.099369064 0.16287185 0.9110297
-0.22357273 0.18276918 0.911183
-0.22363964 0.18530834 0.91145563
